# .PCD v0.7 - Point Cloud Data file format
VERSION 0.7
FIELDS x y z rgb
SIZE 4 4 4 4
TYPE F F F U
COUNT 1 1 1 1
WIDTH 1207
HEIGHT 1
VIEWPOINT 0 0 0 1 0 0 0
POINTS 1207
DATA ascii
76.523003 6.070208 259.227081 13355979
77.024063 6.074526 259.490051 13027014
77.317299 6.082244 260.000854 13882323
77.402596 6.079595 259.812897 14079702
78.103195 6.093702 260.735443 14606046
78.797485 6.100507 261.156250 15856113
79.036812 6.105418 261.477722 15987699
79.156693 6.104467 261.404175 15987699
79.413116 6.110190 261.780304 16711422
79.656395 6.115253 262.111938 14935011
79.812401 6.116049 262.156128 16777215
80.014946 6.119105 262.352539 15921906
80.229630 6.122740 262.587921 16711422
80.416191 6.125001 262.730713 16777215
80.647377 6.129412 263.018311 16777215
-30.736750 7.313358 306.942963 16777215
-18.820753 5.551944 233.628525 13290186
-16.324886 5.537802 232.451599 10855845
-15.806550 5.535666 232.263153 11447982
-14.754209 5.527310 231.599640 11579568
-14.491373 5.525071 231.423279 10724259
-13.458834 5.519797 230.976746 10329501
-13.337736 5.521053 231.055359 10526880
-12.948861 5.518399 230.840500 10197915
-11.537711 5.511168 230.228516 11250603
-11.411750 5.511080 230.212845 10987431
-9.506400 5.503493 229.538712 12698049
-9.384647 5.504709 229.614548 10987431
-9.134937 5.504980 229.614655 11250603
-8.629468 5.503201 229.452087 12303291
-7.368950 5.461564 229.105820 13750737
-5.990316 5.438515 228.824936 12961221
-5.736262 5.435835 228.613663 12105912
-5.614871 5.437677 228.735092 11974326
-5.489454 5.437199 228.690964 12698049
-4.617064 5.436826 228.594345 13684944
-4.490647 5.435419 228.483994 13816530
-3.993307 5.435674 228.462219 12105912
-3.122134 5.434998 228.344101 12895428
-2.127726 5.434408 228.222229 12566463
-2.003886 5.434988 228.253601 13421772
-1.630161 5.432513 228.047318 13355979
-1.382517 5.433716 228.113113 13421772
-0.514086 5.433541 228.030869 12303291
-0.390105 5.433860 228.043686 12171705
0.601740 5.434173 227.986313 13553358
0.849557 5.434030 227.956207 12829635
1.592485 5.433357 227.848648 13421772
1.716401 5.433529 227.850952 13684944
2.582681 5.433310 227.765747 12763842
3.697006 5.434278 227.745255 14342874
3.944322 5.434269 227.724762 13684944
5.058180 5.435148 227.697952 13553358
5.803290 5.437189 227.783463 12237498
5.927778 5.437660 227.807068 13619151
6.051220 5.437575 227.791077 14013909
7.288561 5.438401 227.750595 11711154
7.412743 5.438685 227.760818 11711154
7.537304 5.439123 227.782028 12434877
7.661417 5.439367 227.789444 12763842
8.649226 5.439346 227.708618 14869218
8.775677 5.440435 227.776016 13290186
9.023773 5.440848 227.785538 13158600
9.399034 5.442506 227.873535 12698049
9.897651 5.444020 227.941284 13092807
10.022425 5.444421 227.959885 14803425
11.263685 5.446295 227.993683 13421772
11.386323 5.446061 227.967163 12040119
11.885324 5.447465 228.027130 13684944
12.384671 5.448892 228.088669 13355979
12.505974 5.448338 228.039429 13619151
12.759213 5.449926 228.132278 13355979
12.885344 5.450581 228.168762 13421772
13.133216 5.450795 228.164108 12171705
14.009122 5.453468 228.284180 12434877
15.014463 5.457203 228.469528 12303291
16.520672 5.461873 228.681183 13816530
17.658346 5.466506 228.919861 12040119
18.787113 5.469216 229.022293 11974326
19.041464 5.470389 229.085449 12829635
19.165483 5.470437 229.078918 13158600
19.673073 5.472526 229.186920 13421772
20.175224 5.473671 229.228210 12632256
20.305143 5.474649 229.287415 12566463
20.691107 5.476930 229.418915 12105912
21.572115 5.479075 229.500977 12566463
21.701553 5.479907 229.549820 12632256
22.857342 5.485760 229.873978 12434877
22.987490 5.486627 229.925217 12698049
23.503067 5.489324 230.075974 13290186
23.756763 5.490081 230.109528 13290186
23.881779 5.490207 230.108444 13027014
24.012125 5.491053 230.158249 12895428
24.264746 5.491644 230.180115 12500670
25.047901 5.496664 230.474762 12171705
25.173836 5.496883 230.480301 11513775
25.303732 5.497612 230.521744 11184810
25.434759 5.498478 230.572983 11250603
25.563871 5.499095 230.606506 11382189
25.809956 5.498785 230.564636 11776947
25.943657 5.499970 230.638336 11184810
26.605526 5.504938 230.939117 11776947
26.742853 5.506512 231.040192 11645361
26.870672 5.506919 231.058899 11184810
27.246208 5.507177 231.047165 10855845
27.376070 5.507823 231.082672 11250603
27.505352 5.508394 231.113022 11776947
27.643599 5.510020 231.217758 12040119
27.764526 5.509598 231.177963 11711154
28.675381 5.514112 231.426376 12171705
28.813440 5.515640 231.524139 11316396
28.944897 5.516410 231.568451 11382189
29.076508 5.517192 231.613602 11513775
29.212412 5.518450 231.692291 11447982
29.871187 5.522324 231.915344 10658466
30.260136 5.523901 231.996475 10921638
30.407873 5.526373 232.160660 10724259
31.322334 5.530597 232.388092 9868950
31.571411 5.530501 232.361313 10526880
32.511696 5.537152 232.759583 10395294
32.653088 5.538791 232.864929 10000536
32.788326 5.539799 232.925888 10132122
32.925907 5.541036 233.002914 10592673
33.594116 5.545160 233.243073 10724259
33.851402 5.545800 233.267975 10855845
33.985195 5.546618 233.315536 10724259
34.119488 5.547480 233.366135 10724259
34.791527 5.551765 233.617447 9408399
35.055801 5.553015 233.685257 9013641
35.465408 5.558361 233.872665 10263708
36.680435 5.622044 234.339844 11776947
37.643013 5.629363 234.778793 11250603
37.773239 5.629730 234.794662 10592673
37.910149 5.630694 234.851730 9934743
38.056210 5.632468 234.964706 9803157
38.479328 5.636397 235.207397 9934743
38.734501 5.636618 235.203629 11184810
38.872223 5.637615 235.262909 10921638
39.440468 5.643045 235.599625 10263708
39.703426 5.643899 235.639496 9737364
39.989155 5.646686 235.812714 9342606
40.521503 5.648876 235.925583 10197915
40.662853 5.650110 236.001175 9868950
41.242634 5.656169 236.381027 10592673
41.494301 5.656002 236.350311 9079434
42.184834 5.660583 236.618439 9934743
42.884499 5.665780 236.928864 9474192
43.032681 5.667460 237.035156 9934743
43.165054 5.667876 237.054230 9474192
43.321053 5.670161 237.202179 9079434
43.736649 5.672828 237.357239 8816262
44.315048 5.678207 237.689621 8289918
44.594414 5.680096 237.800598 8026746
45.034863 5.684534 238.077560 8421504
45.609032 5.689354 238.371231 8355711
45.878151 5.690378 238.422440 8355711
46.020489 5.691470 238.488037 8618883
46.156971 5.692119 238.523087 8618883
46.747856 5.698013 238.890518 7697781
47.316139 5.702137 239.135925 8487297
47.751190 5.705822 239.360672 8092539
48.045780 5.708579 239.531143 8289918
48.187325 5.709533 239.587158 8026746
48.483059 5.712335 239.760681 7566195
48.782757 5.715392 239.951797 7566195
49.223866 5.719327 240.193604 7763574
49.492535 5.720134 240.229675 7697781
49.952435 5.725305 240.556427 7566195
50.235374 5.727068 240.658340 7500402
50.700615 5.732499 241.002869 7500402
51.128181 5.735278 241.164841 7566195
51.283054 5.737039 241.276245 7303023
51.425125 5.737920 241.327148 7171437
51.735783 5.741467 241.551697 6842472
52.469540 5.763518 241.909958 7171437
53.211456 5.813155 242.302811 7829367
53.800583 5.817835 242.582214 6842472
53.981705 5.821240 242.803101 6842472
54.889889 5.829656 243.316269 6842472
55.073124 5.833120 243.541016 6908265
55.169788 5.830925 243.383560 7039851
55.384079 5.836391 243.743454 6776679
55.505108 5.835781 243.693008 6974058
55.643803 5.836318 243.720032 6842472
56.130211 5.842438 244.105530 7303023
56.307980 5.845462 244.300491 6908265
56.459721 5.846808 244.382126 6908265
56.716850 5.846532 244.344971 7039851
57.211136 5.852996 244.753479 6776679
57.694023 5.858660 245.107986 6776679
57.839909 5.859588 245.161301 6842472
58.024872 5.862956 245.379288 6908265
58.162777 5.863372 245.398132 7039851
59.412514 5.875642 246.151566 6381921
59.613392 5.879879 246.428101 6447714
60.534618 5.887784 246.905304 6776679
60.854664 5.891157 247.114120 6645093
61.220573 5.897248 247.506165 6645093
61.351376 5.897161 247.490936 6710886
62.507561 5.910728 248.340057 6908265
62.690739 5.913693 248.530533 6710886
63.323448 5.919613 248.891983 6513507
63.463932 5.920052 248.912109 6908265
63.663860 5.923934 249.164368 7368816
63.812225 5.924819 249.214569 6645093
63.956127 5.925442 249.247192 6645093
64.320755 5.931100 249.609589 6842472
65.445007 6.003029 250.286774 6710886
65.802139 6.008172 250.609680 6908265
66.639175 6.017689 251.195435 7303023
66.820686 6.020370 251.364120 7631988
67.329147 6.026322 251.731415 7566195
68.051506 6.036637 252.378632 8158332
68.223778 6.038728 252.508102 8421504
68.549843 6.041859 252.697433 8421504
69.081299 6.048854 253.133575 8026746
69.439728 6.053702 253.436462 9539985
69.579117 6.053925 253.442200 9539985
69.734093 6.055001 253.504486 9342606
69.953796 6.059618 253.800964 8882055
70.104836 6.060465 253.848068 9474192
70.473190 6.065759 254.180359 9605778
71.006935 6.072610 254.606659 9868950
71.175491 6.074373 254.714249 9868950
71.355766 6.076760 254.863174 10263708
71.715744 6.081479 255.157288 10790052
72.222984 6.086748 255.478638 10987431
72.647842 6.094841 255.995819 10263708
73.373405 6.104298 256.584961 11711154
73.545372 6.106144 256.697998 11447982
74.045486 6.110820 256.979889 11316396
74.205673 6.112027 257.050629 11711154
74.959808 6.154519 257.726013 12566463
75.188560 6.190114 258.035248 12698049
75.334877 6.190561 258.055786 12895428
75.484566 6.191184 258.087738 12698049
75.695091 6.194994 258.326904 12566463
76.112747 6.202397 258.791016 13092807
76.300064 6.204958 258.948914 12763842
76.500900 6.208213 259.151947 12237498
76.702240 6.211483 259.355927 13027014
77.133064 6.212279 259.381897 13619151
77.395988 6.218696 259.790375 14869218
77.573250 6.220682 259.910797 15329769
77.806030 6.225513 260.216187 14935011
78.332726 6.231134 260.555603 14013909
78.614532 6.238416 261.020142 14079702
78.770721 6.239275 261.067291 15658734
78.927284 6.240150 261.115540 15592941
79.556511 6.250828 261.783386 16316664
79.697327 6.250885 261.778351 16514043
80.103699 6.257272 262.175995 16777215
80.345924 6.262411 262.501099 16777215
80.597679 6.268010 262.856110 16777215
80.740829 6.268155 262.856812 16777215
-30.517395 7.475403 306.412598 16777215
-18.823524 5.681748 233.661789 13553358
-18.692795 5.681197 233.615646 12763842
-16.053286 5.662524 232.176422 10790052
-14.484809 5.651353 231.316223 10526880
-13.457739 5.647063 230.956329 10921638
-13.074465 5.645735 230.840408 10526880
-11.534920 5.637367 230.170715 11053224
-10.011577 5.631556 229.674088 10658466
-8.876496 5.628424 229.384628 12237498
-7.492305 5.566874 229.097336 12434877
-6.989777 5.565364 228.956757 13882323
-5.735178 5.561023 228.566635 12632256
-5.613052 5.562466 228.656479 11974326
-4.741141 5.562287 228.579727 12632256
-4.363732 5.559148 228.336807 14277081
-4.240077 5.559691 228.364899 12500670
-3.992565 5.560684 228.414551 13027014
-3.369683 5.559458 228.284531 13224393
-2.747381 5.558070 228.143463 12303291
-1.754189 5.557663 228.042160 13882323
-1.630173 5.557767 228.040085 14277081
-0.885818 5.557084 227.938248 12434877
-0.638060 5.558197 227.996185 12171705
-0.514090 5.558392 228.000351 12763842
-0.390031 5.557583 227.935822 12698049
0.601365 5.557895 227.883865 13882323
0.849136 5.557948 227.869141 13487565
1.096470 5.556884 227.778000 12829635
2.210783 5.557490 227.737076 12698049
2.334961 5.558089 227.768906 14079702
2.582157 5.557723 227.725601 13816530
3.819862 5.558553 227.690903 13816530
4.192651 5.560002 227.762589 15329769
4.809101 5.558774 227.632904 13948116
4.933064 5.559029 227.641190 13290186
5.056951 5.559229 227.645691 13948116
6.419468 5.561138 227.675705 14079702
6.915598 5.562108 227.705444 13355979
8.773268 5.564255 227.715149 12698049
8.899891 5.565424 227.785889 15000804
9.274076 5.566749 227.848923 12895428
10.262830 5.567039 227.795639 15066597
10.387711 5.567494 227.817627 14737632
11.135283 5.569571 227.904556 13487565
11.259731 5.569858 227.914993 13882323
11.381323 5.569311 227.868561 13619151
11.510029 5.570824 227.962677 13948116
11.634428 5.571083 227.971207 12829635
13.997669 5.575506 228.099380 12895428
14.624381 5.577662 228.200729 13158600
19.794548 5.597116 229.150787 14145495
20.681906 5.600508 229.317535 11842740
20.810625 5.601291 229.361633 12698049
21.188076 5.602216 229.397079 12303291
21.313679 5.602487 229.406326 11908533
21.446463 5.603879 229.491913 11382189
21.701715 5.605027 229.551590 13553358
22.210155 5.606949 229.645676 13948116
22.582350 5.606992 229.621124 12500670
22.721621 5.609260 229.766098 12961221
23.872307 5.614174 230.017624 12632256
24.002678 5.615052 230.068130 11842740
24.259567 5.616251 230.131226 11645361
25.942949 5.625381 230.632050 10526880
26.452690 5.626958 230.702377 11776947
27.244205 5.632599 231.030197 11447982
27.627596 5.633804 231.084412 11974326
27.757328 5.634438 231.118210 11842740
27.885324 5.634856 231.137375 11842740
28.022106 5.636335 231.228561 11711154
28.937931 5.641475 231.512878 11842740
29.066904 5.641971 231.537338 11579568
29.197491 5.642653 231.574341 11908533
29.335070 5.644140 231.666031 11579568
30.002132 5.649043 231.952515 10263708
30.128637 5.649221 231.955399 10395294
30.249668 5.648783 231.916458 10329501
30.518921 5.650958 232.045486 10197915
31.308205 5.655286 232.283554 9408399
31.824465 5.657014 232.363770 10000536
32.104897 5.660239 232.563904 10197915
32.628448 5.662642 232.689728 10132122
32.786968 5.666119 232.916168 9737364
32.909252 5.665801 232.885376 10132122
33.037037 5.666057 232.893448 10329501
33.838047 5.671049 233.176147 10526880
33.975677 5.672280 233.250290 10658466
34.115036 5.673677 233.335648 11053224
34.245701 5.674194 233.361359 10855845
35.185844 5.680223 233.704788 9474192
37.084518 5.751574 234.477081 10329501
37.356918 5.753474 234.585999 10197915
37.894531 5.756542 234.755035 10197915
38.161022 5.757838 234.823669 9408399
38.299324 5.758945 234.888565 9605778
39.126514 5.765222 235.253296 10855845
39.266891 5.766473 235.327728 10592673
39.697922 5.771065 235.606689 10461087
40.511822 5.775808 235.869156 11842740
40.788399 5.777813 235.984879 10592673
40.936306 5.779641 236.097534 11579568
41.222046 5.782398 236.263138 10197915
41.623390 5.784153 236.353317 10658466
41.757523 5.784763 236.385010 11447982
41.909649 5.786893 236.517746 11513775
42.315250 5.788951 236.627991 9408399
43.017410 5.794478 236.951019 9868950
43.157169 5.795511 237.010803 9539985
43.300785 5.796856 237.091263 9474192
43.447922 5.798482 237.190445 9342606
44.144184 5.803299 237.466095 8289918
44.705509 5.807412 237.703781 8421504
45.579025 5.815907 238.214554 8618883
45.706135 5.815851 238.201950 8750469
45.833847 5.815843 238.192535 8553090
46.140015 5.819771 238.435455 9145227
46.731689 5.825918 238.807861 8289918
47.029736 5.829114 239.002182 9013641
47.715279 5.832479 239.180847 7566195
48.171112 5.837790 239.506500 8092539
48.326134 5.839773 239.629089 8158332
48.461647 5.840295 239.654800 8026746
48.906311 5.844662 239.917664 7895160
49.482056 5.849137 240.178680 7500402
49.624767 5.850154 240.237152 7895160
49.777168 5.851870 240.342010 7763574
49.938751 5.854243 240.490433 7631988
50.833813 5.862933 241.012787 7237230
51.261284 5.865768 241.173798 7697781
51.564251 5.868906 241.363785 6974058
52.041672 5.875164 241.751602 7500402
52.466553 5.891628 241.895386 6579300
52.738125 5.898383 241.935730 6974058
52.881599 5.908482 241.992340 7237230
53.196205 5.942847 242.233215 7763574
53.500740 5.945960 242.419037 7039851
53.792225 5.948143 242.544312 6579300
53.952831 5.950251 242.673203 6447714
54.322163 5.957741 243.144043 6579300
55.039288 5.962191 243.391403 7303023
55.142353 5.960340 243.262466 6842472
55.314907 5.963188 243.439362 6710886
55.781876 5.968256 243.743896 6776679
56.259544 5.973972 244.090485 6842472
56.602100 5.979338 244.422729 6974058
56.701836 5.977277 244.280106 6974058
56.865898 5.979466 244.414062 6842472
57.205368 5.984560 244.728531 7171437
57.343658 5.985032 244.750748 7303023
57.686676 5.990301 245.076538 7171437
57.827469 5.990921 245.108368 6974058
58.451820 5.997322 245.490723 6579300
58.855965 5.997952 245.506012 6645093
59.045792 6.001679 245.739975 6316128
59.217480 6.004236 245.897720 6513507
59.539940 6.007989 246.124771 6645093
59.894257 6.013724 246.480637 6842472
60.034012 6.014217 246.504105 6776679
60.490444 6.018012 246.725174 6776679
61.194958 6.028957 247.402496 6579300
61.631729 6.031400 247.535507 6579300
61.981369 6.036602 247.856537 6645093
62.117016 6.036788 247.860001 6579300
62.965145 6.048013 248.546448 6381921
63.586185 6.053379 248.860626 6447714
63.686642 6.051421 248.724716 6250335
63.928368 6.057927 249.138901 6381921
64.580269 6.092034 249.568817 6842472
64.885582 6.117342 249.703690 6184542
65.047127 6.129895 249.804626 6645093
65.813652 6.143681 250.653122 7171437
66.094254 6.144411 250.683426 7171437
66.568634 6.148648 250.929672 7237230
66.817665 6.155392 251.352432 7105644
67.089424 6.155555 251.346451 7171437
67.450912 6.160950 251.674759 7434609
67.989296 6.168743 252.147995 8355711
68.130592 6.169114 252.163452 8224125
68.488937 6.174216 252.472961 8618883
68.984711 6.179408 252.779907 9276813
69.189529 6.183388 253.025833 9408399
69.847878 6.190029 253.416992 8553090
70.072716 6.195085 253.731598 9013641
70.598007 6.201742 254.131851 9145227
70.743279 6.202269 254.157242 9276813
71.123985 6.208365 254.529877 9408399
71.492493 6.213736 254.856201 10132122
72.001381 6.219288 255.185745 10197915
72.177994 6.221512 255.319397 10461087
72.391808 6.225783 255.583664 10461087
72.641083 6.231992 255.971680 10263708
72.785233 6.232396 255.989105 10461087
72.929787 6.232820 256.007843 10132122
73.149216 6.237347 256.288452 10263708
73.694237 6.244658 256.729919 11184810
74.191856 6.249321 257.002502 11579568
74.586411 6.255796 257.398865 12040119
74.736084 6.256450 257.432251 11579568
75.463516 6.328604 258.015503 12171705
75.666481 6.332130 258.229034 11974326
75.849709 6.334574 258.374634 12237498
76.401871 6.341991 258.816620 12434877
76.801567 6.348588 259.215027 13421772
76.932777 6.348192 259.182251 13092807
77.077698 6.348530 259.195618 13619151
77.390556 6.357836 259.771790 14277081
78.580391 6.376675 260.906586 14342874
78.733246 6.377381 260.942932 14935011
78.887749 6.378170 260.984589 14737632
79.041916 6.378941 261.024994 15329769
79.297058 6.385006 261.397583 14737632
79.647736 6.388730 261.615356 15395562
79.834557 6.391181 261.761230 14408667
80.087860 6.397089 262.123871 15987699
80.532036 6.405602 262.641968 16777215
81.079155 6.419384 263.490479 16777215
-18.651506 5.802508 233.095276 12829635
-18.551064 5.807745 233.428253 13158600
-18.421118 5.807281 233.389877 12698049
-15.784969 5.787522 231.941071 11579568
-14.608974 5.778618 231.288986 11250603
-13.194438 5.771557 230.741058 10921638
-11.404180 5.762742 230.055527 11250603
-9.877624 5.755050 229.459595 11184810
-8.492978 5.720450 229.169388 12500670
-7.490460 5.692199 229.037628 12566463
-7.112495 5.690442 228.895996 13421772
-6.486735 5.689225 228.773148 14737632
-5.984900 5.687245 228.608414 13355979
-5.734501 5.686408 228.536179 12566463
-5.237934 5.687272 228.559341 12303291
-4.612763 5.685032 228.369110 13224393
-4.363174 5.684291 228.303192 13290186
-2.994379 5.681866 228.050079 15790320
-2.746771 5.682654 228.085205 13092807
-2.499526 5.684078 228.162323 13750737
-1.878240 5.682872 228.040497 14211288
-1.754149 5.682814 228.028152 14342874
-1.629582 5.681641 227.942322 14079702
-1.009411 5.680638 227.834000 14277081
0.848315 5.680325 227.686890 12566463
0.972429 5.681425 227.750946 14277081
1.096191 5.681316 227.735352 13619151
1.220070 5.681555 227.742722 12698049
1.962156 5.680731 227.637817 13421772
2.086327 5.681470 227.678116 13684944
2.209862 5.681194 227.651535 12566463
2.333813 5.681551 227.666595 13684944
3.198796 5.680767 227.556015 13948116
3.323253 5.681617 227.603638 14737632
3.571569 5.682611 227.652313 14211288
4.560704 5.682752 227.594223 14211288
4.684188 5.682682 227.581192 14145495
4.930484 5.682109 227.526642 15198183
6.169040 5.684118 227.574875 13882323
6.293452 5.684604 227.598465 14079702
6.417296 5.684776 227.601334 13224393
7.403668 5.684080 227.488312 12698049
7.526349 5.683745 227.457901 12105912
7.653325 5.685339 227.554367 12763842
7.902620 5.686381 227.606079 13487565
8.026946 5.686747 227.621735 14145495
8.151016 5.686998 227.629898 14869218
8.276273 5.687736 227.670013 13553358
8.649147 5.688701 227.708298 15987699
8.772248 5.688549 227.689865 14277081
8.898816 5.689736 227.759537 15461355
10.009199 5.689429 227.663727 13882323
10.135854 5.690523 227.727249 14737632
10.258734 5.690333 227.706329 15658734
10.383733 5.690850 227.731918 16250871
10.509145 5.691492 227.765762 15790320
11.132909 5.693519 227.856995 13158600
11.257423 5.693834 227.869263 14145495
11.378995 5.693257 227.822937 14935011
11.757655 5.695689 227.957565 12961221
12.620235 5.695190 227.865982 13684944
13.995522 5.699627 228.065002 14277081
14.619900 5.701283 228.131638 11711154
14.746791 5.702075 228.175232 12303291
15.124928 5.703808 228.263809 11776947
15.624574 5.705017 228.309540 13158600
15.746083 5.704566 228.271561 13092807
15.876706 5.706108 228.364334 12895428
16.250645 5.706791 228.383957 12040119
16.379419 5.707887 228.447479 11908533
16.507807 5.708888 228.504730 11711154
16.757246 5.709337 228.517349 12961221
17.511770 5.711877 228.633560 13553358
17.637394 5.712261 228.650299 13158600
17.889503 5.713184 228.694046 12895428
18.139330 5.713654 228.707977 12105912
18.517050 5.714904 228.764771 13224393
18.767521 5.715472 228.785141 12829635
18.896063 5.716359 228.834915 11908533
19.023890 5.717106 228.875488 12105912
21.694071 5.728895 229.471191 13487565
21.820824 5.729339 229.491852 13750737
21.953455 5.730712 229.573425 13421772
22.201574 5.730726 229.557465 14342874
22.577520 5.731339 229.572281 12961221
22.714424 5.733322 229.693726 14145495
23.868422 5.738859 229.980377 12237498
24.003292 5.740418 230.074005 12040119
24.130060 5.740788 230.089767 12171705
24.644117 5.743235 230.216156 10066329
25.022461 5.744012 230.241699 11119017
25.283804 5.745787 230.340973 11250603
26.184782 5.749935 230.553207 10658466
26.322495 5.751710 230.660919 11316396
26.447205 5.751745 230.654678 11382189
26.589378 5.754086 230.799484 12105912
26.962875 5.754083 230.773819 13290186
27.629177 5.759679 231.097534 11842740
27.753027 5.759579 231.082489 11579568
27.881247 5.760032 231.103638 11447982
28.018209 5.761581 231.196472 11513775
28.407755 5.763506 231.296967 11184810
28.669594 5.765031 231.379715 12632256
29.185883 5.767124 231.482559 12105912
29.324020 5.768729 231.579041 12434877
29.706646 5.769695 231.616684 10132122
30.770601 5.777215 232.040283 9737364
30.900417 5.777762 232.067520 9737364
31.155281 5.778305 232.085938 10066329
31.687523 5.781892 232.286316 9474192
32.095921 5.785538 232.498993 10263708
33.022003 5.790872 232.787704 10592673
33.967991 5.798063 233.197586 10592673
34.098927 5.798625 233.225708 11382189
34.485390 5.799636 233.266144 10592673
34.633961 5.802002 233.412094 10329501
35.425632 5.805822 233.610153 10790052
35.574409 5.808136 233.752609 11184810
36.514606 5.839171 234.083282 10395294
37.341625 5.879158 234.490036 10000536
37.729237 5.880025 234.521561 9868950
37.878620 5.882256 234.656570 10000536
37.995796 5.881381 234.592392 10066329
38.427650 5.886429 234.892014 9868950
38.995045 5.892230 235.231766 10263708
39.258072 5.893153 235.274796 9737364
39.681786 5.897214 235.510971 9408399
40.084084 5.899247 235.617096 10132122
40.619049 5.901782 235.747208 11184810
40.778366 5.904709 235.926773 10592673
40.923454 5.906343 236.023392 10987431
41.734516 5.910713 236.254898 10132122
41.894821 5.913635 236.434052 9737364
42.453590 5.918004 236.681534 9934743
43.133244 5.921728 236.879532 9013641
43.299202 5.925021 237.082397 9145227
43.548843 5.924581 237.037918 8487297
44.269161 5.931550 237.443649 8224125
44.417145 5.933249 237.544296 8618883
44.535378 5.932467 237.486130 8158332
44.843582 5.936845 237.750168 9342606
45.687428 5.943142 238.104462 8487297
45.831379 5.944442 238.179504 8289918
46.394630 5.948571 238.411163 9079434
46.546188 5.950448 238.523178 8947848
46.991955 5.955319 238.810425 8158332
47.852982 5.962467 239.218719 7763574
48.167923 5.966969 239.490433 8092539
48.315704 5.968454 239.577271 8026746
48.446312 5.968608 239.578888 7960953
49.023148 5.973373 239.850922 7500402
49.191326 5.976374 240.034698 7763574
49.763660 5.980671 240.276703 6908265
50.388947 5.988838 240.766083 7368816
51.104309 5.993953 241.051971 7434609
51.212151 5.992377 240.942917 6974058
51.373192 5.994704 241.083481 7171437
52.287392 6.039482 241.680557 7171437
52.618275 6.039832 241.991623 6908265
52.753632 6.042797 242.009506 7368816
53.619728 6.075970 242.360855 6908265
53.880856 6.076042 242.349854 6974058
54.120140 6.083821 242.831192 6974058
54.383595 6.084024 242.828354 6710886
54.696918 6.087745 243.046692 6776679
55.018509 6.092012 243.299393 6908265
55.291576 6.092852 243.336594 7105644
55.431061 6.093475 243.367981 6974058
56.394363 6.105856 244.099213 6776679
56.979328 6.110033 244.330399 7171437
57.466415 6.116393 244.706543 7303023
57.686195 6.122370 245.074188 7368816
57.819225 6.122479 245.073212 6974058
58.843006 6.129380 245.451752 6513507
59.342793 6.136298 245.862671 6447714
59.676498 6.140896 246.135666 6842472
60.171589 6.147365 246.518250 6447714
60.301727 6.147236 246.502274 6381921
60.646706 6.152462 246.814621 6513507
61.136944 6.158470 247.168106 6447714
61.288372 6.159688 247.236664 6513507
61.763294 6.164628 247.523041 6776679
62.242676 6.169792 247.823456 6710886
62.701847 6.173624 248.040176 6842472
63.872974 6.188581 248.923111 6513507
64.349525 6.193303 249.195511 6842472
64.572533 6.221004 249.537674 6645093
64.718353 6.228855 249.578094 6710886
64.855865 6.230795 249.585358 6842472
65.739983 6.273993 250.372711 7368816
66.370026 6.279697 250.694946 7105644
66.547348 6.282318 250.849228 6513507
67.233398 6.291295 251.373367 7368816
67.728844 6.296792 251.690094 7631988
67.963478 6.302778 252.052048 7895160
68.090851 6.302320 252.016281 8158332
68.259865 6.304353 252.134171 8553090
68.466629 6.308629 252.390518 8355711
68.963753 6.314058 252.702896 8618883
69.515747 6.322661 253.211090 8355711
69.828590 6.325105 253.346771 8224125
70.066277 6.331083 253.707977 9013641
70.581932 6.337380 254.073746 9276813
70.733139 6.338262 254.120544 9276813
70.913689 6.340843 254.272186 9079434
71.119743 6.344893 254.514374 8882055
71.381844 6.344291 254.462067 9803157
71.765144 6.350662 254.839844 10329501
72.144318 6.356750 255.200119 10132122
72.613731 6.367943 255.875107 9803157
72.773300 6.369230 255.946854 10197915
73.290298 6.375234 256.294128 10395294
73.430336 6.375396 256.296448 10395294
73.971382 6.382677 256.722443 11776947
74.300880 6.385742 256.896057 11579568
74.715591 6.427732 257.367828 12237498
75.071800 6.460620 257.634430 12632256
75.236069 6.462100 257.717102 12829635
75.619125 6.468106 258.067291 12369084
75.791916 6.470044 258.177704 13027014
75.989601 6.473367 258.372223 13619151
76.172012 6.475826 258.514252 13290186
76.549675 6.481433 258.840088 13027014
76.910286 6.486056 259.106232 13750737
77.052322 6.486238 259.110077 13158600
77.199257 6.486690 259.130280 13224393
77.706665 6.499343 259.883606 14079702
78.123718 6.506954 260.330841 14671839
78.257385 6.506640 260.304626 14869218
78.478249 6.511095 260.567596 13684944
78.805191 6.513705 260.711487 14737632
79.007332 6.517106 260.910553 15198183
79.587227 6.525806 261.416504 15921906
80.204193 6.536413 262.038025 16711422
80.649651 6.545255 262.559692 16777215
80.873795 6.549729 262.823730 16777215
-18.766891 5.929116 232.952072 14145495
-16.032972 5.914500 231.877930 11711154
-14.736218 5.906649 231.310944 10855845
-12.932365 5.896003 230.539536 11382189
-11.525592 5.888370 229.979767 10592673
-11.400088 5.888342 229.970673 11711154
-10.261238 5.884571 229.668106 12237498
-8.740586 5.819085 229.159851 13355979
-8.617434 5.819823 229.199127 13750737
-8.490276 5.818863 229.130112 12105912
-7.237190 5.816492 228.900864 11842740
-5.232843 5.809478 228.329269 12303291
-4.735247 5.809224 228.281952 12698049
-4.611501 5.809655 228.301620 13290186
-4.487508 5.809902 228.309540 13882323
-3.988841 5.808475 228.187622 14737632
-2.993414 5.806015 227.968811 14869218
-1.877764 5.807152 227.971298 13224393
-1.629466 5.806529 227.916122 13487565
-1.257481 5.806331 227.880219 13750737
-1.009285 5.805120 227.787643 13421772
-0.389722 5.802677 227.593475 12829635
0.352751 5.802775 227.553268 12105912
0.724375 5.804910 227.665741 13684944
0.848076 5.804666 227.642471 12895428
0.971948 5.805073 227.660629 13421772
1.590154 5.804056 227.557236 12500670
2.085788 5.805646 227.627319 13684944
2.578944 5.803531 227.461914 13355979
3.815775 5.804708 227.459320 14342874
4.063379 5.805150 227.471924 14474460
4.558599 5.805981 227.493790 13816530
5.052236 5.805646 227.441620 14606046
5.175390 5.805415 227.419159 14737632
5.920802 5.808181 227.548431 13027014
6.166539 5.807436 227.485626 14803425
6.906493 5.807018 227.412720 14671839
7.155963 5.808321 227.480011 14145495
8.025842 5.810936 227.591812 14474460
8.525020 5.813147 227.701126 15921906
8.647527 5.812731 227.667038 15198183
8.772188 5.813201 227.689148 14671839
9.636497 5.813182 227.633804 11974326
10.131813 5.813737 227.638077 14145495
10.257550 5.814536 227.680984 15198183
11.129275 5.817012 227.783920 12763842
11.258916 5.818961 227.899734 13816530
11.375206 5.816695 227.748322 15132390
12.491964 5.818411 227.787537 13619151
12.617564 5.819023 227.818588 13816530
12.749315 5.821346 227.958084 13290186
12.993173 5.820477 227.887512 14211288
13.118938 5.821101 227.919342 13092807
13.874507 5.824910 228.114288 14869218
13.996014 5.824385 228.073288 13750737
14.117917 5.823971 228.039368 13487565
14.245024 5.824872 228.088699 12369084
14.873243 5.827425 228.211731 12369084
15.249569 5.828740 228.271759 12566463
15.375436 5.829267 228.297409 12895428
15.500512 5.829605 228.311081 12895428
15.874978 5.830427 228.339890 12895428
16.002794 5.831367 228.391647 13355979
16.377209 5.832135 228.417068 11908533
16.505690 5.833185 228.475830 12698049
16.627424 5.832768 228.441666 14211288
16.882019 5.834320 228.524445 13619151
17.629570 5.835453 228.549683 13224393
17.757973 5.836409 228.602432 12434877
17.881149 5.836304 228.588058 12434877
18.133097 5.837212 228.630020 12369084
18.767435 5.840261 228.784225 13487565
18.894873 5.840961 228.820709 12369084
19.018362 5.840906 228.809509 13092807
19.149263 5.842246 228.886520 13290186
19.270433 5.841754 228.847656 12698049
19.653032 5.843820 228.955093 13684944
20.028395 5.844523 228.976303 13421772
20.155846 5.845171 229.009521 12237498
20.292391 5.847427 229.144470 12040119
20.412786 5.846807 229.097488 12895428
21.951982 5.855566 229.558136 13816530
22.198719 5.855337 229.528107 12500670
22.568516 5.854963 229.481201 13290186
22.707928 5.857415 229.628387 14737632
22.829098 5.856953 229.591400 13421772
22.962631 5.858444 229.677872 12500670
23.466787 5.859643 229.722565 12961221
23.869644 5.864277 229.992096 12632256
24.771421 5.868997 230.235764 10921638
25.266228 5.868631 230.181534 11974326
25.405375 5.870752 230.307709 12040119
26.573473 5.877472 230.661957 13158600
26.701460 5.877944 230.683975 13421772
26.827028 5.878086 230.685089 13290186
27.216604 5.880229 230.797012 13290186
27.342131 5.880356 230.797226 12895428
28.002304 5.885228 231.065704 11119017
28.382488 5.886015 231.092010 11447982
29.834433 5.895917 231.630829 10658466
30.090925 5.896723 231.665985 10395294
30.221870 5.897449 231.703964 10987431
30.356865 5.898658 231.772415 10329501
31.144270 5.903077 232.004120 11579568
31.285624 5.904982 232.116440 10921638
31.416553 5.905656 232.151123 10526880
31.541426 5.905622 232.141129 10658466
31.682232 5.907434 232.247574 10263708
32.209805 5.910488 232.408707 11250603
32.610214 5.913260 232.559921 11119017
32.738083 5.913542 232.569885 11447982
32.871128 5.914403 232.616302 11053224
33.009842 5.915890 232.702179 10592673
33.283150 5.918377 232.843231 10592673
33.418625 5.919477 232.904755 10461087
33.694290 5.922174 233.058975 10000536
34.481152 5.925755 233.237442 10855845
34.627560 5.927967 233.368973 10066329
35.564304 5.933879 233.686279 11250603
35.694984 5.934378 233.709824 11645361
35.828335 5.935150 233.750565 11053224
35.961956 5.935945 233.792755 11711154
36.650284 5.975401 234.139267 10658466
36.911686 5.980589 234.183426 10066329
37.845165 6.006111 234.449722 10987431
37.977089 6.006671 234.477036 10197915
38.116421 6.007962 234.549622 10000536
38.548061 6.013128 234.847351 10790052
38.672592 6.012938 234.828156 10461087
39.243618 6.019230 235.188217 10329501
40.072838 6.025808 235.550980 9934743
40.352219 6.028232 235.686157 9803157
40.479012 6.028224 235.678207 10790052
40.604546 6.028099 235.663055 10724259
41.167221 6.033204 235.949326 10526880
41.307274 6.034406 236.016281 10790052
41.573757 6.035543 236.071793 9605778
41.877472 6.040056 236.336197 9474192
42.030830 6.042429 236.475601 10066329
42.964432 6.046245 236.659531 9605778
43.111145 6.047961 236.758255 9342606
43.288013 6.052329 237.021072 9803157
43.811626 6.053516 237.064621 9079434
44.259693 6.059184 237.392761 8750469
44.408951 6.061044 237.500366 8618883
44.530781 6.060536 237.461441 8882055
44.956646 6.064180 237.664398 9013641
45.127499 6.067840 237.883224 8947848
45.368061 6.066548 237.788361 8882055
45.806755 6.071169 238.051636 8882055
46.677570 6.079659 238.531494 8487297
46.932457 6.079530 238.508545 8092539
47.123074 6.084634 238.816544 7697781
47.265888 6.085812 238.881836 7697781
48.126247 6.093041 239.283478 7895160
48.413300 6.095426 239.415787 8092539
49.159775 6.103562 239.880859 7763574
49.432899 6.104766 239.940140 7697781
49.756405 6.109888 240.241486 7763574
49.893616 6.110522 240.273071 7631988
50.476479 6.115648 240.559525 7105644
50.747471 6.116611 240.603867 7960953
51.080009 6.122256 240.937363 7500402
51.206848 6.122062 240.917770 8026746
51.344955 6.122723 240.951019 7434609
51.677193 6.128263 241.277985 7500402
51.827915 6.129854 241.368698 7237230
53.142452 6.200264 241.988373 7303023
53.758263 6.207356 242.390915 7105644
53.861767 6.205383 242.263870 6974058
54.221245 6.212674 242.692688 6974058
54.388393 6.215372 242.849426 6908265
54.696735 6.218835 243.045578 7105644
54.848053 6.220347 243.130310 7105644
55.278358 6.223135 243.278244 7303023
55.710243 6.226002 243.430954 7500402
55.905247 6.230605 243.703415 7303023
56.195713 6.232653 243.813507 6842472
56.390667 6.237207 244.082947 6974058
56.662125 6.237868 244.108765 6842472
57.160686 6.245276 244.537155 7434609
57.591824 6.247881 244.673767 7105644
58.690487 6.260210 245.371964 7105644
58.870422 6.263517 245.565582 7500402
59.316635 6.266981 245.754211 6645093
59.660774 6.272431 246.070633 6908265
59.811707 6.273709 246.140961 6645093
60.166019 6.279783 246.495148 6579300
60.291393 6.279320 246.459808 6645093
60.442223 6.280567 246.528244 6579300
60.948364 6.287853 246.948715 6776679
61.382149 6.290259 247.072983 6776679
61.741455 6.296471 247.435379 6776679
61.935009 6.300471 247.670883 6645093
62.360126 6.302209 247.754501 7105644
63.533901 6.317906 248.655762 6776679
63.657486 6.317279 248.610443 6842472
63.846226 6.320834 248.818756 6645093
64.345444 6.349247 249.184021 7303023
64.839172 6.393957 249.526901 6776679
65.002762 6.395862 249.633881 7105644
65.479866 6.400662 249.900070 7237230
66.355644 6.413633 250.640366 7039851
66.638985 6.414539 250.680756 7039851
66.863724 6.420205 251.012146 7303023
67.006477 6.420712 251.035553 7303023
67.231773 6.426378 251.366943 7368816
67.728676 6.432120 251.689102 7895160
68.094498 6.438051 252.029388 7500402
68.216599 6.437243 251.974274 8355711
68.352798 6.437309 251.971283 7895160
68.738663 6.444407 252.381180 8158332
69.098282 6.449847 252.692032 8289918
69.460800 6.455422 253.010941 9145227
69.611481 6.456334 253.058472 9013641
70.000938 6.463487 253.471451 9145227
70.532547 6.470949 253.895920 9342606
70.730804 6.474683 254.111801 9342606
70.861908 6.474375 254.086487 9408399
71.027771 6.476150 254.185425 9211020
71.371231 6.480381 254.423950 9737364
71.914070 6.488309 254.876114 9868950
72.296104 6.494738 255.245667 10395294
72.502235 6.498826 255.482529 10461087
73.177383 6.506286 255.899551 10658466
73.717285 6.513764 256.324615 10855845
73.923950 6.517791 256.557739 11316396
74.112625 6.520760 256.727753 11513775
75.369423 6.600185 257.693573 12632256
75.568764 6.603732 257.895325 12829635
75.771210 6.607446 258.106934 12632256
76.163643 6.614115 258.485535 12105912
76.282928 6.613002 258.413574 12763842
76.855209 6.621970 258.920593 13487565
77.046158 6.624949 259.088959 13158600
77.184303 6.624905 259.079803 14474460
77.500900 6.635027 259.667633 12895428
77.984467 6.638762 259.867157 13948116
78.167236 6.641220 260.004852 13355979
78.624702 6.651291 260.582977 14935011
78.807068 6.653692 260.717316 14211288
79.174652 6.658629 260.993927 16711422
79.509315 6.661693 261.160614 15000804
79.821434 6.671293 261.717529 14474460
80.371681 6.678473 262.119049 16777215
80.605858 6.683661 262.416931 16777215
80.753754 6.684062 262.433807 16777215
81.243408 6.703323 263.557648 16777215
-19.196081 6.067602 233.552399 13158600
-19.075335 6.068985 233.629440 12632256
-18.279444 6.062547 233.197769 11776947
-16.030672 6.042123 231.843079 12105912
-14.471521 6.031180 231.098251 10790052
-13.054829 6.022314 230.486496 10790052
-12.667788 6.019308 230.284088 11316396
-11.140795 6.012285 229.777802 10921638
-8.614887 5.945013 229.128387 12434877
-8.487735 5.943993 229.058441 13290186
-6.354119 5.936363 228.467194 12566463
-5.729885 5.934923 228.342865 12434877
-5.603817 5.933755 228.263870 12237498
-4.734703 5.934373 228.251816 12698049
-4.610355 5.934299 228.240112 13092807
-4.234584 5.931556 228.050079 12566463
-3.241927 5.931783 228.006882 13684944
-2.497372 5.931472 227.944962 12105912
-1.628114 5.928371 227.704544 13421772
-1.505037 5.930462 227.825851 11974326
-1.257052 5.930004 227.783478 14342874
0.600331 5.928820 227.603912 13421772
1.341985 5.927121 227.456909 13027014
2.207562 5.927581 227.435379 14079702
2.455013 5.927963 227.444580 13816530
2.579091 5.928630 227.478424 14606046
3.568457 5.929346 227.465454 14013909
3.690861 5.928208 227.388519 14211288
4.187003 5.930009 227.470551 15000804
5.051468 5.929826 227.409592 16185078
5.174356 5.929400 227.376389 14869218
5.299546 5.930578 227.441513 15461355
5.546710 5.930686 227.433914 14145495
5.918993 5.931812 227.481628 12829635
6.045250 5.933472 227.576248 15132390
8.399473 5.936972 227.655746 13882323
8.891112 5.935977 227.566391 15263976
9.013082 5.935370 227.522110 14869218
9.261428 5.935961 227.544098 12632256
11.255904 5.942647 227.839890 13750737
11.373064 5.940583 227.706375 13224393
11.617938 5.939937 227.652634 14277081
12.242040 5.942067 227.747482 13684944
12.616065 5.943145 227.792160 13882323
12.742216 5.943922 227.832642 13553358
12.865525 5.943872 227.822464 13355979
13.496472 5.947609 228.015640 14869218
13.618154 5.947099 227.977310 14935011
13.860701 5.945895 227.889420 13027014
13.994006 5.948491 228.041168 12829635
14.248768 5.950478 228.148514 11974326
15.357457 5.949629 228.032608 12303291
16.372204 5.955716 228.347946 12500670
17.363085 5.956117 228.315582 13487565
17.753923 5.960313 228.550766 12105912
18.389988 5.963862 228.732086 13290186
18.759499 5.963493 228.688171 13158600
18.893099 5.965431 228.799484 12632256
19.394583 5.966631 228.844330 14013909
19.523207 5.967546 228.893097 13553358
19.649546 5.968019 228.914810 12763842
19.899481 5.968435 228.926010 12434877
20.025692 5.968873 228.945663 12369084
20.155245 5.969925 229.002808 13421772
20.276649 5.969468 228.967758 12566463
20.404978 5.970284 229.010422 13027014
20.536142 5.971605 229.084030 13355979
23.213055 5.983887 229.684174 12237498
23.592478 5.984990 229.730057 14079702
23.718853 5.985337 229.744080 15263976
23.849094 5.986289 229.795029 14606046
23.974131 5.986418 229.795792 13224393
24.108521 5.988002 229.885315 11974326
24.757729 5.992254 230.109055 11645361
25.260822 5.993107 230.132492 11645361
25.400696 5.995404 230.265457 11579568
25.525572 5.995471 230.262436 11447982
27.473269 6.006773 230.844345 12698049
27.719696 6.006380 230.805984 11447982
27.849392 6.007064 230.840576 11711154
28.886871 6.012355 231.105774 11316396
29.043505 6.016503 231.351456 10855845
30.207376 6.021531 231.593185 11184810
30.355530 6.024422 231.762177 10197915
30.608503 6.024772 231.769119 10724259
31.010710 6.028076 231.948837 11053224
31.266661 6.028760 231.976166 11842740
31.415642 6.031639 232.144318 11053224
31.538670 6.031371 232.120804 10658466
31.668623 6.031937 232.148071 10329501
31.931168 6.033371 232.221069 10526880
32.852066 6.038480 232.481750 10197915
32.992268 6.040188 232.578598 10066329
33.668682 6.045769 232.882324 11382189
34.067532 6.048245 233.011459 9868950
34.193401 6.048271 233.005783 10132122
34.611130 6.052778 233.258499 11513775
34.879780 6.054655 233.358307 11711154
35.002903 6.054362 233.333252 10987431
35.274239 6.056505 233.449188 10724259
35.403198 6.056841 233.462433 10395294
35.950111 6.086114 233.724121 10724259
36.463593 6.085507 233.756241 10263708
36.606125 6.103841 233.859833 9737364
36.773270 6.126770 234.119476 9934743
37.161598 6.127782 234.159698 10921638
37.302345 6.129298 234.243713 10790052
37.840191 6.132674 234.418777 10790052
38.106174 6.134032 234.486526 10263708
38.256348 6.136460 234.625137 11316396
38.937614 6.141382 234.885895 11119017
39.082161 6.143180 234.986740 11053224
39.773582 6.148924 235.296585 10658466
40.463638 6.154373 235.588730 11184810
40.603115 6.155587 235.654541 11053224
40.861755 6.156041 235.668091 11184810
40.997375 6.156870 235.710907 9934743
41.561165 6.162162 236.000275 10461087
41.703453 6.163593 236.079071 9868950
41.988464 6.166471 236.237671 10329501
42.273979 6.169365 236.397141 10461087
42.953461 6.173311 236.599030 9737364
43.125496 6.177397 236.836624 9934743
43.252296 6.177330 236.825775 10921638
43.375874 6.176971 236.797440 9474192
44.389671 6.187802 237.397293 9474192
44.526722 6.188625 237.439636 9605778
44.666950 6.189725 237.498566 9013641
44.935680 6.190876 237.553619 9342606
45.364616 6.194841 237.770111 9276813
45.510185 6.196375 237.854950 8947848
45.647102 6.197149 237.894363 8882055
45.797375 6.199077 238.002762 8882055
45.967388 6.202701 238.212585 8487297
46.671654 6.208103 238.501099 8816262
46.798740 6.207997 238.487854 8553090
46.925869 6.207896 238.474899 8421504
47.389210 6.214493 238.848541 7960953
48.106991 6.220746 239.187714 7829367
48.252834 6.222167 239.265762 7960953
48.583019 6.228159 239.610046 8684676
48.831627 6.227410 239.551407 8355711
49.409649 6.232491 239.827286 7763574
49.740540 6.238372 240.164810 7960953
50.020657 6.240122 240.255508 8224125
50.734772 6.245525 240.543533 7434609
50.883018 6.247020 240.625839 7237230
51.065556 6.251208 240.869080 7500402
51.205460 6.252027 240.910995 7960953
51.343403 6.252687 240.943497 7631988
51.495049 6.254416 241.039825 7171437
51.668949 6.257874 241.239334 7303023
51.823044 6.259773 241.345795 7303023
52.408318 6.290973 241.629623 7500402
52.580566 6.326944 241.824829 7829367
53.128422 6.329763 241.924332 7566195
53.593983 6.335534 242.244141 7368816
53.749023 6.337429 242.349045 7039851
53.864082 6.336263 242.273972 6908265
54.390461 6.346536 242.858353 6645093
54.836601 6.350628 243.079361 7434609
54.971333 6.350931 243.090622 6908265
55.107117 6.351312 243.106461 7368816
55.368893 6.351340 243.095001 7368816
55.561859 6.355971 243.360672 7039851
55.891743 6.361020 243.644363 7566195
56.178692 6.362862 243.739502 7039851
56.348747 6.365731 243.901566 7171437
56.650997 6.368661 244.060608 7566195
57.129124 6.374807 244.402100 7303023
57.404140 6.375698 244.441269 7303023
57.733170 6.380471 244.708572 7171437
57.879662 6.381547 244.765244 6974058
58.014111 6.381756 244.770920 7171437
58.354134 6.387247 245.080353 7237230
58.491676 6.387663 245.098221 6842472
58.849678 6.394368 245.478928 7171437
59.431622 6.398189 245.676956 6842472
59.630352 6.402866 245.945084 7039851
59.933041 6.405548 246.089386 6645093
60.428974 6.412435 246.474014 6645093
60.717842 6.414097 246.558365 6776679
61.518257 6.423540 247.079697 7039851
62.032776 6.431438 247.523560 6842472
62.992397 6.442300 248.121307 6908265
63.145142 6.443605 248.191223 7105644
63.513348 6.450373 248.575165 6579300
64.021118 6.457477 248.972107 6974058
64.818779 6.526863 249.448212 6710886
65.013130 6.530863 249.673294 6645093
66.146851 6.543602 250.366104 9605778
66.510193 6.549745 250.708725 7434609
66.621307 6.548215 250.614044 6974058
66.839935 6.553662 250.922653 7631988
66.983177 6.554210 250.948059 7697781
67.363396 6.561342 251.347748 7368816
67.837967 6.565802 251.586700 7171437
68.066681 6.571786 251.926285 7105644
68.215652 6.572659 251.970459 8224125
68.730736 6.579584 252.351776 8553090
68.867012 6.579633 252.348328 8421504
69.287430 6.589055 252.880203 8618883
69.463852 6.591613 253.021683 9803157
69.609772 6.592246 253.051941 9408399
70.099892 6.597401 253.330841 9013641
70.279381 6.600111 253.481125 8947848
70.650040 6.606227 253.821808 8882055
70.972404 6.609311 253.987305 9211020
71.185791 6.614067 254.255707 9145227
71.358536 6.616301 254.378418 9605778
72.273209 6.630461 255.164627 10197915
72.481186 6.634787 255.408142 10592673
72.675323 6.638257 255.602142 10658466
73.143242 6.641667 255.779999 10263708
73.338097 6.645143 255.974350 10000536
73.680801 6.649230 256.197601 11119017
75.122795 6.732028 257.328949 12566463
75.541519 6.740553 257.802124 12105912
75.729500 6.743515 257.964691 11842740
75.886475 6.744616 258.021362 12105912
76.476746 6.754979 258.593140 12566463
76.664032 6.757848 258.750427 13027014
76.831299 6.759523 258.839783 12237498
77.062584 6.764972 259.143768 12500670
77.212646 6.765616 259.174408 13553358
77.420029 6.769629 259.396729 13619151
77.964828 6.777059 259.801422 13092807
78.119598 6.777953 259.846283 13619151
78.372978 6.784590 260.217834 14540253
78.731010 6.789159 260.465698 14342874
78.833664 6.787004 260.337158 13553358
79.159760 6.797789 260.944550 14606046
80.086563 6.810785 261.653534 16316664
80.286987 6.814220 261.842865 16645629
80.493088 6.817969 262.049988 16777215
-18.868792 6.181591 232.642365 11776947
-18.123299 6.185214 232.817337 12763842
-16.155460 6.169856 231.823227 11053224
-14.592417 6.157438 231.020813 11053224
-12.790647 6.145587 230.239746 11513775
-12.157575 6.143809 230.104675 10658466
-11.770839 6.140304 229.880859 11053224
-9.613652 6.071208 229.174896 11908533
-8.862798 6.070493 229.092850 11447982
-8.353956 6.066018 228.800339 11513775
-8.233867 6.068179 228.922241 12369084
-7.483382 6.066969 228.810867 12434877
-5.852804 6.059652 228.290451 13224393
-5.728653 6.059755 228.289993 13092807
-2.991969 6.054687 227.844727 11513775
-2.867363 6.053812 227.786194 11974326
