# .PCD v0.7 - Point Cloud Data file format
VERSION 0.7
FIELDS x y z rgb
SIZE 4 4 4 4
TYPE F F F U
COUNT 1 1 1 1
WIDTH 1184
HEIGHT 1
VIEWPOINT 0 0 0 1 0 0 0
POINTS 1184
DATA ascii
48.196545 20.121201 251.891312 9276813
48.495392 20.129429 252.020279 8158332
49.160328 20.170485 252.618912 8289918
49.337685 20.193933 252.825089 8092539
49.643059 20.257975 252.989059 7368816
49.977699 20.278677 253.289993 8026746
50.467503 20.304853 253.674179 8224125
50.807579 20.326950 253.994431 7960953
50.964912 20.333319 254.089996 8355711
51.110905 20.335569 254.128723 7697781
52.122330 20.396709 255.018738 8224125
52.443726 20.411087 255.232605 7960953
52.825047 20.446281 255.733948 6974058
53.318226 20.470980 256.098114 7171437
53.675766 20.497150 256.474945 7105644
54.167477 20.520582 256.821777 7237230
54.522655 20.545322 257.178955 8158332
54.689240 20.553848 257.304443 7566195
55.053932 20.581429 257.700928 7105644
55.229977 20.592979 257.868256 7171437
55.408123 20.605177 258.044525 7039851
55.756298 20.653509 258.361267 7566195
56.259144 20.716364 258.740631 7763574
56.469795 20.739065 259.061035 7763574
56.786175 20.749376 259.218750 6776679
57.156513 20.777351 259.619690 7368816
57.490273 20.793045 259.851593 7368816
57.648579 20.798023 259.928040 6974058
57.868855 20.823193 260.282562 6710886
58.035343 20.830730 260.394257 7237230
58.258743 20.856701 260.759857 7895160
58.945511 20.892809 261.288879 6447714
59.303329 20.915199 261.613190 7697781
59.502167 20.932671 261.861786 7105644
59.670330 20.940287 261.974670 6710886
60.055710 20.970943 262.412933 6381921
60.247047 20.985729 262.624603 6645093
60.428864 20.997440 262.793945 6052956
60.786701 21.018867 263.105164 6776679
61.136795 21.037661 263.380096 6184542
61.351669 21.059397 263.687622 6316128
61.690765 21.074440 263.910950 6645093
62.300816 21.193575 264.682190 6118749
62.473904 21.201967 264.805542 6118749
62.670574 21.217571 265.027985 6316128
63.046371 21.243181 265.395996 5987163
64.006203 21.312290 266.385986 6250335
64.200768 21.326698 266.592072 6118749
64.587837 21.354689 266.992950 6579300
64.791359 21.371582 267.233215 7105644
65.151909 21.391245 267.519806 6447714
65.573517 21.428867 268.053131 6316128
65.784401 21.447575 268.318390 6513507
65.968513 21.458271 268.473602 6250335
66.590912 21.510651 269.218109 6645093
66.976761 21.536659 269.592072 6381921
67.152679 21.544609 269.709595 6645093
67.373848 21.565702 270.007782 6645093
67.813644 21.606863 270.590088 6776679
68.024452 21.650379 270.846924 7631988
68.457611 21.730488 271.401306 6776679
68.967102 21.747799 271.663635 7434609
69.184341 21.767105 271.936523 6842472
69.641548 21.811941 272.567627 7039851
70.084587 21.852356 273.138245 7434609
70.296898 21.869820 273.385956 7829367
70.705772 21.900064 273.817322 7500402
70.926071 21.919558 274.092896 7368816
71.139175 21.936941 274.339600 7171437
71.799866 21.994604 275.155334 7434609
72.239403 22.032373 275.690002 6974058
72.634598 22.057531 276.051880 8026746
72.893707 22.087030 276.464752 7237230
73.547478 22.140835 277.227997 7434609
73.794838 22.166685 277.590973 7105644
74.215584 22.215227 278.037933 6776679
74.416542 22.279411 278.230438 7303023
74.713539 22.318525 278.773499 7171437
74.929390 22.335379 279.012451 7237230
75.380478 22.374128 279.559357 6776679
76.478889 22.461714 280.799927 7368816
76.739059 22.489857 281.193298 7763574
77.182907 22.525385 281.696411 7434609
78.220009 22.635101 283.231293 7829367
78.404488 22.642494 283.341187 7829367
78.868401 22.682163 283.901184 8684676
79.165787 22.719055 284.414368 8421504
79.602234 22.750990 284.868713 8553090
79.844963 22.773252 285.182007 8092539
80.142494 22.834980 285.692566 8092539
80.625053 22.923456 286.307709 8289918
80.890785 22.951387 286.697327 7895160
81.146980 22.976732 287.051727 8487297
81.625679 23.018414 287.637817 8618883
81.934509 23.057045 288.173340 8816262
82.145271 23.070284 288.362854 8816262
82.965660 23.157814 289.583069 9211020
83.167801 23.168545 289.738464 9539985
83.705566 23.223835 290.510376 9013641
83.993958 23.256271 290.961670 9013641
84.252319 23.280972 291.307526 9474192
84.781052 23.333113 292.036713 9211020
85.599075 23.416817 293.205536 9803157
85.964516 23.467747 293.909149 10132122
86.688797 23.599121 294.749359 10987431
87.868912 23.730093 296.566772 11447982
88.079041 23.741497 296.731171 11119017
88.383141 23.776087 297.210724 10855845
88.753868 23.826986 297.911987 11250603
89.045753 23.858274 298.346710 11579568
89.256523 23.869501 298.508789 12369084
-11.027628 18.962311 235.381363 10987431
-10.916998 19.004065 235.748184 11250603
-10.254887 18.966509 235.262650 12434877
-9.344142 18.935505 234.880875 10526880
-8.044305 18.883133 234.223495 12171705
-7.917150 18.883150 234.230377 13092807
-7.788911 18.880806 234.204620 11776947
-6.499588 18.835144 233.639603 12171705
-6.373132 18.836302 233.662231 11645361
-6.246141 18.836067 233.665634 11974326
-4.966699 18.801643 233.255722 10592673
-4.838730 18.797249 233.201553 10066329
-4.456753 18.790113 233.122696 10658466
-3.185369 18.766401 232.860718 11776947
-2.298041 18.756927 232.775864 12500670
-2.044233 18.750786 232.704071 11447982
-1.410886 18.741556 232.609344 12763842
-0.525241 18.734993 232.564713 12566463
-0.398732 18.733261 232.547318 12369084
0.612772 18.722185 232.446762 16711422
0.992139 18.722475 232.470612 16119285
1.749798 18.710934 232.350357 16711422
1.876609 18.714293 232.403488 15724527
2.003452 18.717436 232.453644 16711422
2.129207 18.711845 232.382797 16777215
3.392796 18.705803 232.365097 16777215
4.781908 18.697025 232.316101 16777215
4.908793 18.698355 232.341141 16777215
5.797840 18.707907 232.519852 16777215
7.315504 18.702501 232.524261 16777215
7.440195 18.698069 232.469391 16777215
7.569302 18.703461 232.550827 16777215
7.699062 18.710075 232.649200 16777215
7.952981 18.710913 232.674057 16777215
8.471154 18.732599 233.001434 16777215
8.598768 18.733849 233.025406 16777215
8.716871 18.716881 232.796616 16777215
8.843198 18.715868 232.789169 16777215
9.098845 18.719366 232.850952 16777215
9.861935 18.784237 232.973099 16777215
9.981548 18.754177 232.796158 16777215
10.104910 18.726728 232.706284 16777215
10.502444 18.792953 233.127136 16777215
10.885402 18.795488 233.182266 16777215
11.014488 18.798454 233.229980 16777215
11.141898 18.798819 233.241730 16777215
12.293939 18.808617 233.437622 16777215
12.421184 18.808519 233.442978 16777215
13.191776 18.816843 233.598434 16777215
13.830929 18.819178 233.664337 16777215
13.965546 18.827765 233.789902 16777215
14.090345 18.824472 233.751068 16777215
15.004432 18.848207 234.126709 16777215
15.142145 18.859272 234.286621 16777215
16.556786 18.867165 234.470078 16053492
16.946041 18.872366 234.562332 16777215
17.613539 18.898365 234.956238 15790320
17.740889 18.897461 234.950485 16579836
18.909103 18.909319 235.175644 16777215
20.091303 18.991922 235.561752 14540253
20.231977 19.001991 235.707642 13158600
21.417660 19.022938 236.058624 14737632
21.547964 19.023960 236.079590 13882323
21.688673 19.033142 236.213303 13355979
22.616789 19.051426 236.513977 15329769
23.699312 19.086033 237.047241 15592941
23.827652 19.085115 237.041458 16053492
23.959736 19.086876 237.072693 14145495
24.103487 19.096897 237.218079 13224393
24.912302 19.117788 237.548264 13421772
25.157398 19.107738 237.423126 14803425
25.314598 19.126253 237.686020 13158600
25.997709 19.148031 238.021683 12895428
26.945625 19.171162 238.390060 10790052
27.768299 19.195904 238.773895 14013909
28.607584 19.290110 239.292496 13948116
28.739492 19.290663 239.307159 14342874
28.868290 19.289343 239.295959 13224393
29.013271 19.297693 239.418121 11579568
29.298784 19.311525 239.622864 11974326
29.704477 19.318594 239.741440 12566463
30.543633 19.347866 240.187363 11316396
31.247347 19.373474 240.575806 11579568
31.953846 19.399439 240.969315 10395294
32.382523 19.417032 241.233261 11776947
32.793056 19.424507 241.357651 10197915
33.231236 19.446306 241.679733 10395294
33.504562 19.450727 241.754929 9803157
34.224415 19.480103 242.195862 10526880
34.374725 19.489061 242.326614 10395294
34.801987 19.503576 242.548340 10329501
35.253563 19.529842 242.932297 10855845
35.385189 19.529079 242.928894 10790052
35.672173 19.593292 243.095993 9276813
36.103718 19.616182 243.332458 10461087
36.685837 19.639509 243.682266 10921638
36.835152 19.647043 243.793167 10855845
36.978447 19.651640 243.863632 9342606
37.409985 19.665987 244.082764 10395294
37.859386 19.688364 244.412430 11119017
38.145100 19.696545 244.539505 10066329
38.295807 19.704224 244.652435 9803157
38.593170 19.717545 244.850327 9408399
38.742405 19.724386 244.951752 10855845
39.333744 19.748711 245.315659 10197915
39.645638 19.767891 245.594269 9605778
39.786301 19.770536 245.637970 10987431
39.930431 19.774708 245.702698 10921638
40.245277 19.794737 245.993042 8684676
40.393269 19.800482 246.079437 8750469
40.846867 19.821669 246.393097 8421504
40.979828 19.820683 246.386826 8882055
41.138374 19.830816 246.533676 9803157
42.068859 19.881302 247.272949 9079434
42.511066 19.911066 247.501236 8882055
42.977383 19.982809 247.870270 9211020
43.740562 20.016916 248.375641 8487297
44.230007 20.049742 248.848633 8684676
44.524754 20.058441 248.982986 8092539
44.846020 20.077740 249.262909 7631988
44.995361 20.082747 249.339127 8289918
45.159660 20.093727 249.497391 8421504
45.313995 20.100649 249.599930 7368816
45.626171 20.115753 249.822311 7566195
45.774288 20.120068 249.889053 7303023
46.271164 20.153502 250.370743 6974058
46.728733 20.170992 250.633484 7566195
47.695656 20.224813 251.417999 7763574
48.196365 20.257536 251.890244 9342606
48.673729 20.280882 252.233704 8882055
49.153278 20.336554 252.588379 9145227
49.307747 20.356333 252.678268 8750469
49.626068 20.388611 252.902435 7895160
50.132477 20.421494 253.375748 8092539
50.452515 20.436657 253.598785 8487297
50.640503 20.454393 253.849411 7895160
51.284725 20.485401 254.304901 7434609
51.473339 20.502975 254.553360 8289918
52.110435 20.530441 254.960480 7500402
52.437611 20.546995 255.202728 7697781
52.794853 20.573969 255.587799 7171437
53.306896 20.605537 256.043610 7895160
53.469749 20.613211 256.156525 7566195
53.645618 20.625372 256.330963 7303023
53.823502 20.638166 256.514069 7039851
54.171124 20.660732 256.838898 7368816
54.662537 20.683830 257.178833 7434609
55.036007 20.714655 257.616974 6974058
55.194695 20.720406 257.703583 7566195
55.392082 20.739252 257.969788 7566195
55.898079 20.830479 258.372833 7829367
56.434296 20.867197 258.898193 6974058
56.775227 20.885834 259.168640 6842472
57.148384 20.914970 259.582642 7895160
57.861588 20.961460 260.249725 6316128
58.036594 20.971851 260.399689 7500402
58.181015 20.972185 260.412201 8421504
58.393032 20.994568 260.726105 6908265
58.766743 21.022659 261.126007 6184542
59.283409 21.050116 261.525269 7434609
59.644131 21.073404 261.859619 6447714
59.822899 21.084450 262.018646 6381921
60.032276 21.105211 262.310486 6118749
60.395130 21.128670 262.647247 6118749
60.787251 21.161146 263.107361 6447714
60.933582 21.161577 263.121307 6052956
61.129288 21.177542 263.347626 6118749
61.338665 21.197718 263.631622 7039851
61.686832 21.215725 263.893982 6908265
62.092014 21.316851 264.406158 6316128
62.454880 21.339035 264.724823 5987163
62.853161 21.371954 265.189819 6118749
63.228584 21.397522 265.554688 5723991
63.771542 21.429243 266.011688 5921370
63.988457 21.450670 266.312012 5987163
64.358276 21.473793 266.643677 6381921
64.770752 21.509586 267.148132 6710886
65.560204 21.569538 267.998596 6184542
65.763809 21.586216 268.234283 6974058
65.942070 21.595261 268.365906 6974058
66.573997 21.650906 269.149628 6447714
66.769958 21.664942 269.349396 6381921
67.141876 21.686943 269.666077 7039851
67.360809 21.707544 269.955383 6842472
67.814659 21.753136 270.593964 6645093
68.200905 21.845654 270.968048 6447714
68.434578 21.870176 271.309875 6776679
69.157845 21.906116 271.832275 7237230
69.412041 21.936144 272.248993 6974058
69.624496 21.954037 272.500763 7105644
69.782097 21.956110 272.537415 7039851
70.050636 21.989935 273.005859 7237230
70.455162 22.019352 273.422882 6447714
70.683861 22.041483 273.732361 7105644
70.876373 22.053244 273.900818 7829367
71.099205 22.073542 274.185394 7237230
71.541039 22.112787 274.736267 7368816
71.767677 22.133894 275.031891 7105644
71.947952 22.141886 275.149139 6908265
72.225021 22.176971 275.634949 6908265
72.602875 22.197491 275.931213 7763574
72.875534 22.231003 276.395721 7500402
73.039787 22.234241 276.448364 10724259
73.968185 22.351133 277.678619 7237230
74.386719 22.421148 278.118805 7500402
74.700012 22.465052 278.722870 7171437
75.082954 22.485600 279.018982 7039851
75.334160 22.512129 279.387512 7105644
75.790367 22.552280 279.949585 7105644
76.019768 22.572580 280.233704 7171437
76.463425 22.608831 280.742981 7105644
76.916649 22.647356 281.283142 7763574
77.138329 22.665173 281.533661 7566195
77.626617 22.712610 282.194855 7895160
77.932739 22.752743 282.748169 7697781
78.132469 22.764343 282.914398 8224125
78.598648 22.805115 283.485321 8421504
78.874435 22.836691 283.922668 7697781
79.145172 22.866806 284.340179 8026746
79.591080 22.901485 284.828613 8224125
79.785683 22.911266 284.970245 7763574
80.314804 23.037699 285.758118 8026746
80.592316 23.069063 286.191345 7960953
80.855965 23.096672 286.573792 7960953
81.148788 23.131794 287.057892 7960953
81.550117 23.153641 287.371552 8487297
81.890923 23.200903 288.019928 8289918
82.361351 23.240223 288.570038 9211020
82.659744 23.276083 289.064270 9145227
82.897736 23.296230 289.345978 8421504
83.404480 23.344185 290.013062 9145227
83.663078 23.369358 290.362854 8816262
84.197632 23.423841 291.118408 9803157
84.458893 23.449392 291.473328 9408399
84.790810 23.492811 292.070068 9145227
85.044502 23.516205 292.395874 9474192
85.573288 23.568132 293.117065 9868950
85.842941 23.595272 293.493652 10329501
86.399254 23.725855 294.309265 11053224
86.649734 23.747932 294.616425 11316396
86.941460 23.780296 295.062347 10132122
87.308083 23.831329 295.760162 10329501
87.576187 23.857492 296.122498 10658466
88.020866 23.886679 296.535095 10987431
88.378860 23.934975 297.196106 10855845
88.648438 23.961105 297.558136 11711154
88.973495 24.000904 298.104584 12763842
90.142426 24.208319 300.922150 12040119
-10.897739 19.064608 235.357239 10592673
-10.773514 19.109173 235.411545 10395294
-10.254380 19.095421 235.249832 10000536
-9.470266 19.062550 234.839264 10987431
-9.341722 19.060543 234.818436 11645361
-8.560661 19.027847 234.410126 11316396
-7.917988 19.014027 234.253967 10855845
-6.372272 18.962631 233.628830 11842740
-6.245696 18.963482 233.647156 11974326
-5.860960 18.951704 233.505493 11711154
-4.837927 18.922680 233.160355 11184810
-4.710847 18.921200 233.146698 13882323
-4.583261 18.917765 233.106171 12698049
-3.820663 18.906149 232.986588 13290186
-3.312409 18.896902 232.886185 13158600
-2.297757 18.882547 232.742172 15987699
-1.410956 18.869894 232.614853 14342874
-0.651718 18.862068 232.547150 16711422
-0.398677 18.856503 232.483948 14474460
0.486099 18.843739 232.354996 14671839
0.612817 18.851984 232.474960 13750737
0.992150 18.850981 232.481064 16711422
1.496810 18.837187 232.318008 15198183
2.002517 18.837769 232.352524 16777215
2.759592 18.828062 232.258865 16777215
3.265954 18.831663 232.334946 16777215
3.646911 18.838774 232.452637 16777215
4.657252 18.831165 232.401108 16777215
4.781873 18.824495 232.315994 16777215
5.037168 18.832129 232.434296 16777215
5.162704 18.828810 232.395279 16777215
5.797511 18.834597 232.508118 16777215
7.062097 18.829876 232.509613 16777215
7.315854 18.830849 232.536301 16777215
7.441021 18.827435 232.495941 16777215
7.569390 18.831205 232.554489 16777215
7.824993 18.835901 232.632431 16777215
8.335469 18.842800 232.754028 16777215
8.461993 18.842190 232.752274 16777215
8.590795 18.846031 232.811829 16777215
8.715045 18.840986 232.749023 16777215
9.978385 18.860390 232.711853 16777215
11.010445 18.919973 233.145233 16777215
11.139903 18.923515 233.200592 16777215
12.292400 18.934277 233.408920 16777215
12.424969 18.941444 233.514084 16777215
13.191092 18.943785 233.586670 16777215
13.830838 18.946894 233.663116 16777215
13.961735 18.951031 233.726685 16777215
14.475983 18.955833 233.819656 16777215
14.606762 18.959532 233.877243 16777215
14.735526 18.960842 233.901993 16777215
15.003019 18.974640 234.105042 16579836
15.144468 18.989988 234.322693 16777215
16.416637 18.982742 234.290833 16382457
16.556234 18.994745 234.462540 16645629
16.946442 19.000946 234.568100 16777215
17.609449 19.022779 234.902130 16645629
18.387659 19.030626 235.050751 16448250
18.897169 19.026989 235.027939 16777215
19.955908 19.114752 235.476166 15066597
20.088213 19.117865 235.525711 13224393
20.229038 19.128153 235.673553 14671839
20.751240 19.133999 235.781189 15066597
21.677492 19.153154 236.091949 13750737
21.816589 19.161072 236.207382 13882323
21.948324 19.163128 236.242477 14277081
22.614670 19.178806 236.491913 14474460
22.768463 19.197338 236.752945 15592941
23.823801 19.211559 237.003296 14540253
23.953882 19.211906 237.014969 14606046
24.094294 19.219635 237.127884 13882323
25.302666 19.247631 237.574310 12500670
25.995239 19.276064 237.999176 13619151
26.397970 19.283991 238.128799 14211288
26.527136 19.283258 238.125702 14869218
27.087612 19.308386 238.498413 11316396
27.919662 19.338783 238.957504 12500670
28.605684 19.419212 239.276596 12369084
28.736847 19.419321 239.285141 13158600
28.862719 19.416225 239.249832 12632256
29.013144 19.427929 239.417023 11316396
29.851294 19.458166 239.873108 11447982
30.531231 19.471428 240.089996 11184810
31.246592 19.503908 240.569962 10855845
31.944021 19.525082 240.895325 10921638
32.217220 19.530132 240.978699 11579568
32.793812 19.556135 241.363159 11053224
34.218063 19.608454 242.150955 9737364
34.367580 19.617085 242.276321 9737364
34.793846 19.631239 242.491669 10790052
35.077614 19.640272 242.629715 10000536
35.669949 19.721685 243.080200 9013641
36.102539 19.747772 243.324448 10000536
36.379162 19.752556 243.404236 9868950
36.820900 19.772543 243.698898 9803157
36.968861 19.779446 243.800400 8947848
37.552727 19.802734 244.147507 9868950
38.144432 19.828983 244.535126 10790052
38.288555 19.833647 244.606110 9868950
38.732533 19.852781 244.889328 10921638
38.880630 19.859112 244.983109 10987431
39.313290 19.872520 245.188202 10197915
39.786846 19.904076 245.641251 10592673
39.927841 19.906866 245.686691 10921638
40.069199 19.909794 245.734039 9737364
40.523392 19.931808 246.056824 8487297
41.120544 19.956741 246.426910 8684676
41.289276 19.971348 246.633865 8487297
41.583637 19.981579 246.788422 8684676
42.058311 20.010878 247.210983 9079434
42.352089 20.020409 247.356003 8947848
43.112801 20.116911 247.873611 8750469
43.725243 20.145182 248.288651 8224125
44.045055 20.164656 248.568939 8816262
44.209435 20.176142 248.732925 9211020
44.819553 20.202047 249.115875 7960953
44.974503 20.209400 249.223572 7763574
45.150242 20.225119 249.445312 7566195
45.304699 20.232151 249.548660 7171437
45.926517 20.261419 249.977646 7303023
46.243443 20.278156 250.220840 7368816
46.383011 20.278978 250.239578 7434609
46.733109 20.308479 250.656799 7631988
47.361542 20.338543 251.096893 8421504
47.687611 20.357870 251.375549 8092539
47.848362 20.366566 251.501694 8092539
48.177940 20.386890 251.793976 8289918
48.811863 20.417259 252.238495 8750469
49.145313 20.463505 252.546158 9408399
49.295467 20.477972 252.613464 9211020
49.790829 20.535109 253.040390 7434609
49.963852 20.547726 253.219589 7631988
50.136555 20.560150 253.396164 8026746
50.444695 20.571024 253.559372 8421504
50.632145 20.588701 253.807404 8158332
51.272892 20.618704 254.246140 7566195
51.436989 20.627514 254.373657 7697781
52.099384 20.664412 254.906311 7303023
52.442005 20.686628 255.223938 7171437
52.943352 20.715025 255.633423 7500402
53.295094 20.739868 255.986862 8355711
53.457863 20.747578 256.099518 7566195
53.798309 20.768084 256.394012 7763574
54.163174 20.796864 256.801086 7434609
55.013618 20.846260 257.512177 7039851
55.176174 20.853395 257.617065 7237230
55.886723 20.966290 258.320221 7960953
56.416729 21.001209 258.817535 6710886
56.584667 21.009783 258.941742 7631988
56.766544 21.022997 259.128906 7105644
57.283138 21.052538 259.553375 7434609
57.839481 21.094776 260.150238 6908265
58.030621 21.110592 260.372742 6908265
58.177193 21.111639 260.394928 7171437
59.467655 21.204422 261.709747 7500402
59.798851 21.218239 261.913269 6579300
60.187538 21.250355 262.365173 6645093
60.545017 21.272190 262.677582 6447714
60.788094 21.303518 263.110840 6381921
61.112778 21.314531 263.276428 6118749
61.330597 21.337542 263.596802 7500402
62.060204 21.449619 264.270630 6184542
62.627743 21.490383 264.846649 6118749
63.735058 21.561602 265.859467 6184542
64.162209 21.602678 266.431763 6579300
64.311241 21.603331 266.448822 6447714
64.565987 21.636234 266.902344 6118749
64.924782 21.655815 267.183838 6447714
65.338326 21.691761 267.686890 6184542
65.544662 21.709476 267.934967 6184542
65.919189 21.733204 268.272705 6908265
66.358017 21.775934 268.867737 6118749
66.717476 21.794649 269.137726 6052956
67.141884 21.832434 269.665924 6842472
67.568390 21.870493 270.197906 6776679
67.784294 21.923779 270.477509 6579300
68.169594 21.982611 270.843567 7039851
68.737450 22.017536 271.340240 8618883
69.140587 22.047703 271.764282 7039851
69.386627 22.075596 272.149200 7303023
70.005112 22.124027 272.828400 7105644
70.450493 22.165451 273.404572 6842472
70.847679 22.192728 273.789856 7895160
71.035500 22.203199 273.939758 6908265
71.712402 22.266504 274.820099 7171437
72.168343 22.309568 275.418671 7171437
72.358322 22.320253 275.571564 6974058
72.558029 22.333630 275.760773 6974058
72.841232 22.370373 276.265533 7368816
73.030266 22.380594 276.412170 10000536
73.298035 22.412769 276.855316 7631988
73.715012 22.443722 277.290588 7171437
74.144806 22.522928 277.776276 6842472
74.367912 22.565823 278.048370 6908265
74.583488 22.582994 278.288239 6974058
74.828049 22.608107 278.635010 6842472
75.322159 22.659384 279.342834 7303023
75.528992 22.673813 279.545868 7237230
76.045441 22.730606 280.328033 7039851
76.280891 22.752605 280.633057 7171437
76.471588 22.762323 280.772705 7171437
76.890877 22.791914 281.188812 8289918
77.356125 22.833675 281.768829 7829367
77.587662 22.854132 282.053162 8026746
77.879288 22.890680 282.554199 7960953
78.046013 22.893526 282.601410 8092539
78.341263 22.930815 283.112488 9013641
78.589394 22.955345 283.451752 8421504
78.868629 22.988083 283.901581 8026746
79.572098 23.049864 284.760559 8092539
80.061363 23.148226 285.406555 7763574
81.347618 23.296930 287.208344 8487297
81.864235 23.349018 287.925934 9079434
82.084442 23.364952 288.149048 8882055
82.315178 23.383570 288.408173 8684676
83.115273 23.466936 289.555176 8355711
83.361687 23.489260 289.864166 8882055
83.626236 23.516176 290.234863 8882055
83.855820 23.533976 290.483124 9145227
84.164246 23.571983 291.002838 9868950
84.429573 23.598782 291.371979 9408399
84.721077 23.632181 291.829865 9079434
85.306503 23.699207 292.748718 9737364
85.593170 23.730986 293.184906 9803157
85.825729 23.748882 293.434631 10197915
86.097023 23.821486 293.821045 10921638
86.345634 23.870642 294.126526 10855845
87.747047 24.018637 296.155334 10658466
88.032127 24.049099 296.572784 10921638
88.371391 24.093044 297.170776 10592673
88.948669 24.155127 298.021240 12105912
90.282166 24.405077 301.388031 11645361
-11.167065 19.220196 235.635696 10790052
-10.768170 19.181086 235.329391 9934743
-9.468324 19.160040 234.813232 12171705
-8.042479 19.107523 234.196762 11250603
-7.527600 19.096479 234.024155 12434877
-6.371031 19.087887 233.581299 11119017
-5.860413 19.078613 233.481766 10197915
-5.473637 19.058702 233.230637 10658466
-4.836374 19.045380 233.082581 12171705
-4.709936 19.046093 233.098953 10921638
-4.583130 19.045483 233.097351 11711154
-3.820803 19.034870 232.992828 11382189
-3.437907 19.019505 232.803482 12829635
-3.312367 19.024658 232.880371 11316396
-2.297512 19.008442 232.712738 13027014
-2.044110 19.005108 232.680649 12895428
-1.410915 18.996836 232.601227 12829635
-0.778018 18.985411 232.478821 13619151
-0.651687 18.987970 232.520370 13421772
0.233423 18.978222 232.434097 13421772
0.485994 18.969297 232.325714 14803425
0.612735 18.978590 232.459122 16645629
1.370145 18.961975 232.272507 16777215
1.623285 18.965948 232.340012 16711422
2.759500 18.955252 232.254074 16777215
3.265298 18.956043 232.291534 16777215
4.655944 18.954098 232.338333 16777215
5.036670 18.958109 232.413101 16777215
5.163659 18.959532 232.439224 16777215
5.919197 18.948177 232.324219 16777215
6.172486 18.948788 232.345886 16777215
6.427562 18.953957 232.429825 16777215
7.190409 18.961296 232.570129 16777215
7.316245 18.959303 232.549591 16777215
7.824578 18.962584 232.621124 16777215
8.460159 18.966135 232.703049 16777215
8.587122 18.966436 232.713867 16777215
10.235031 19.000555 232.797394 16777215
11.136962 19.046721 233.139740 16777215
11.388710 19.042969 233.102158 16777215
12.419739 19.062078 233.416626 16777215
12.550602 19.066902 233.489105 16777215
12.679826 19.069412 233.530090 16777215
13.188219 19.067884 233.536362 16777215
13.686198 19.053350 233.365387 16777215
13.828387 19.071695 233.622192 16777215
14.346008 19.080872 233.774399 16777215
14.866755 19.092876 233.965210 16645629
14.995571 19.094168 233.989578 16777215
15.140701 19.113863 234.264908 16777215
16.418280 19.112507 234.314407 16711422
16.554289 19.120874 234.435333 16316664
16.944687 19.127354 234.544128 16777215
17.462399 19.132681 234.644043 16777215
17.592447 19.134552 234.676392 16777215
18.385187 19.156700 235.019485 15790320
18.887449 19.146505 234.907669 15329769
19.164822 19.165089 235.174911 16579836
20.231859 19.259195 235.706375 15658734
20.744442 19.257008 235.704239 16250871
20.879013 19.261780 235.776062 16316664
21.812088 19.286358 236.158844 14606046
21.949505 19.292931 236.255188 14671839
22.613247 19.306696 236.477127 16250871
22.760992 19.320765 236.675522 16514043
22.886562 19.317869 236.643051 14606046
23.013443 19.315985 236.624344 15263976
23.148582 19.320305 236.690079 15263976
23.416527 19.327055 236.795837 13750737
24.090321 19.346037 237.088943 14342874
24.222054 19.347525 237.116150 13224393
24.351238 19.347174 237.118332 12500670
25.161711 19.369482 237.463791 13882323
25.312586 19.383913 237.667252 12632256
25.440104 19.382208 237.651016 11974326
25.856470 19.399956 237.913605 12895428
25.994787 19.405426 237.995087 12303291
26.252438 19.403585 237.983978 12895428
26.390356 19.408680 238.060333 14869218
26.518450 19.407259 238.047958 14737632
26.665291 19.418112 238.202774 13027014
27.080269 19.433544 238.433960 13487565
27.911161 19.463568 238.884964 12632256
28.049759 19.514278 238.971649 12434877
28.862600 19.546379 239.248810 11184810
29.008694 19.555544 239.380325 10526880
29.137501 19.554186 239.368973 11053224
29.282246 19.562414 239.487808 12105912
29.843142 19.583881 239.807693 12105912
30.520977 19.596123 240.009476 11250603
30.669344 19.605858 240.148834 11250603
31.243877 19.633226 240.549072 10987431
31.658813 19.644194 240.719437 11382189
31.941202 19.654524 240.874069 12237498
32.786892 19.683622 241.312302 11316396
32.929840 19.689398 241.397934 11645361
33.071804 19.694593 241.475708 11842740
33.211731 19.698658 241.538086 11645361
33.777058 19.717506 241.822906 9803157
34.367962 19.748947 242.278961 10000536
34.935474 19.767443 242.559143 9605778
35.650620 19.820362 242.943314 9539985
36.369465 19.879976 243.339371 10658466
36.510006 19.883463 243.393906 10461087
36.953453 19.904354 243.698868 10000536
37.113941 19.917343 243.882202 9605778
37.699718 19.941536 244.239304 9013641
38.007713 19.960512 244.511139 9934743
38.273949 19.959558 244.512848 9211020
39.009636 19.989582 244.956482 10658466
39.465717 20.013773 245.306488 9145227
39.781540 20.034960 245.608459 10066329
39.924419 20.038628 245.665573 10658466
40.065170 20.041309 245.709274 10855845
40.672733 20.071672 246.150497 9474192
41.115242 20.088076 246.395096 9276813
41.275059 20.098877 246.548981 8553090
42.183620 20.140459 247.157410 10000536
42.332348 20.146061 247.240799 8947848
42.487034 20.154177 247.358322 8289918
42.805496 20.236305 247.655792 8026746
43.719707 20.277454 248.257126 8224125
43.879444 20.287230 248.396835 9539985
44.029015 20.292707 248.478409 9342606
44.348759 20.312080 248.755432 9013641
44.961510 20.339144 249.151566 7039851
45.437458 20.365618 249.532288 7763574
45.924438 20.396021 249.966202 7171437
46.559341 20.429955 250.455566 7631988
46.723492 20.440453 250.605179 7895160
47.337513 20.465141 250.969559 8684676
47.820618 20.492008 251.355942 8224125
47.983902 20.501726 251.495056 7763574
48.331566 20.529093 251.880661 8289918
49.138451 20.591797 252.509766 8882055
49.283558 20.599998 252.550583 8947848
50.435448 20.704817 253.512787 7697781
50.604023 20.715631 253.666458 7631988
50.758598 20.721207 253.749405 7697781
50.906914 20.724436 253.800735 7500402
51.260292 20.751659 254.183578 8026746
51.591980 20.770657 254.455490 7500402
52.085213 20.797192 254.836914 7500402
52.267792 20.812494 255.051239 7500402
52.434025 20.821827 255.184998 7368816
53.619598 20.893452 256.206482 7960953
53.950130 20.910524 256.452606 7105644
54.289364 20.930449 256.737274 7566195
54.833805 20.972279 257.325684 7368816
55.006321 20.982971 257.477905 7303023
55.163300 20.988239 257.556885 6974058
55.347881 21.002983 257.763885 7500402
55.687149 21.059856 258.042542 7303023
56.042419 21.110548 258.390076 7500402
56.403503 21.136610 258.756775 7171437
56.578323 21.147593 258.912567 7500402
56.917480 21.165844 259.174194 6710886
57.808922 21.225164 260.012756 7237230
58.007740 21.243677 260.270050 7105644
58.170250 21.250038 260.363708 7500402
58.529114 21.273844 260.700287 6974058
58.697681 21.282076 260.819153 6710886
58.925884 21.309870 261.201477 6842472
59.433056 21.334513 261.557495 7171437
59.603378 21.343054 261.680573 7171437
59.795811 21.358732 261.899811 6908265
60.158817 21.382790 262.239960 6513507
60.351875 21.398453 262.459015 6842472
60.909458 21.438066 263.016907 7039851
61.081001 21.446568 263.139526 6710886
61.292465 21.467745 263.432953 6842472
61.476009 21.479944 263.605408 6710886
61.830990 21.527237 263.900391 6250335
62.220913 21.597071 264.342499 6250335
62.596542 21.623562 264.714661 6447714
62.762691 21.629911 264.808136 5592405
63.175713 21.667730 265.332489 5592405
63.397724 21.691336 265.657745 5921370
64.143723 21.740782 266.354889 6447714
64.300529 21.743845 266.404297 6184542
64.578331 21.784088 266.953156 6052956
64.915726 21.797241 267.146423 5987163
65.323074 21.831575 267.624298 5789784
65.529358 21.849417 267.872284 5592405
66.102295 21.888578 268.423431 6052956
66.336235 21.914450 268.779388 6052956
66.690987 21.931917 269.030792 6381921
67.117531 21.970652 269.568024 7171437
67.550529 22.010952 270.126373 7039851
67.739838 22.029011 270.296234 6316128
67.937233 22.075125 270.501099 6710886
68.690079 22.149942 271.153229 7105644
68.930405 22.176586 271.518616 6842472
69.117516 22.187511 271.673492 6579300
69.555710 22.227886 272.231415 7171437
70.211716 22.287401 273.054413 7171437
70.419258 22.303844 273.283295 7303023
70.824219 22.333597 273.699066 8224125
71.021149 22.346777 273.884277 6316128
71.289879 22.380497 274.344727 7039851
71.684273 22.406633 274.712158 7237230
72.331650 22.461241 275.469910 7105644
72.531555 22.474785 275.660034 7237230
72.803261 22.508566 276.121490 7171437
73.019287 22.526495 276.370453 7171437
73.449097 22.561495 276.856934 7829367
73.616096 22.565451 276.918640 6842472
73.907730 22.666798 277.455780 6974058
74.128410 22.691599 277.717682 6974058
74.549255 22.723423 278.160431 7631988
74.782768 22.745661 278.466339 7171437
74.981125 22.758036 278.640503 7039851
75.498360 22.815975 279.432373 7039851
75.970886 22.861113 280.053253 7039851
76.455254 22.909122 280.712585 7895160
76.630630 22.914680 280.795715 7763574
76.804451 22.919786 280.872803 8553090
77.061806 22.947655 281.254181 8355711
77.346634 22.982893 281.734070 7697781
77.797462 23.020708 282.257385 8421504
78.025032 23.040085 282.525299 8026746
78.302460 23.072845 282.972198 8224125
79.038055 23.144371 283.955292 8882055
79.774673 23.215300 284.930573 7960953
80.514534 23.356619 285.914886 8355711
80.756203 23.378832 286.220062 8158332
81.017967 23.406286 286.595062 8158332
81.317749 23.443693 287.102722 9079434
81.747368 23.473253 287.515045 10197915
82.259300 23.524191 288.212341 8684676
82.545509 23.557438 288.664703 8816262
82.804749 23.583494 289.021240 8816262
83.058472 23.608009 289.357269 8421504
83.563690 23.656168 290.017731 9211020
83.854874 23.690121 290.479645 8355711
84.135864 23.721298 290.904602 8684676
84.361488 23.738035 291.136993 9145227
84.714767 23.787659 291.807922 9013641
85.823502 23.965069 293.433960 9737364
86.010818 23.984810 293.530060 9474192
86.854393 24.075712 294.766602 9737364
87.164558 24.113159 295.273865 10000536
87.431580 24.139500 295.633453 10395294
87.712425 24.169243 296.038330 10592673
88.015015 24.204380 296.514954 10855845
88.916954 24.307526 297.914825 11184810
-10.636422 19.296146 235.250641 10066329
-9.466586 19.257931 234.793045 12171705
-7.653115 19.192537 234.000122 11119017
-5.985497 19.176003 233.440842 11645361
-4.837312 19.176985 233.126373 11447982
-4.709680 19.173365 233.084137 11645361
-4.583206 19.173981 233.099152 10724259
-3.437808 19.146944 232.793961 14079702
-3.312006 19.150717 232.851685 11974326
-3.185070 19.148590 232.829636 14079702
-1.916899 19.126116 232.592667 15329769
-1.663528 19.121128 232.538605 13355979
-0.777958 19.110935 232.447571 13421772
-0.651621 19.112854 232.480240 11382189
-0.525300 19.116686 232.538773 14474460
0.233320 19.102030 232.380615 15198183
0.612488 19.100958 232.386200 16645629
1.117960 19.097870 232.371185 16777215
1.623157 19.092636 232.327118 16777215
2.128452 19.089678 232.313843 16777215
2.632599 19.079777 232.206558 16711422
4.401591 19.076450 232.255249 16777215
4.904315 19.065706 232.136490 16777215
6.170418 19.070618 232.270020 16777215
6.425293 19.075510 232.349716 16777215
7.186940 19.080673 232.459946 16777215
7.314775 19.083450 232.504288 16777215
7.823206 19.087172 232.581573 16777215
8.459632 19.092655 232.689499 16777215
8.585539 19.090879 232.672134 16777215
8.709363 19.085066 232.600021 16777215
9.732659 19.100834 232.867615 16777215
9.980054 19.089754 232.730789 16777215
10.234232 19.090473 232.753983 16777215
11.385769 19.166172 233.042633 16777215
12.414258 19.182257 233.314453 16777215
12.547423 19.190342 233.430588 16777215
13.187008 19.194092 233.515320 16777215
13.687696 19.182896 233.391098 16777215
13.826610 19.197287 233.592560 16777215
14.218521 19.208822 233.769043 16777215
14.345344 19.207937 233.763870 16777215
14.471055 19.205740 233.740967 16777215
14.865386 19.219234 233.944000 16777215
14.994182 19.220522 233.968246 16777215
15.128079 19.227591 234.070709 16777215
15.761597 19.221786 234.026291 16777215
16.411619 19.233574 234.219955 16777215
16.549271 19.243771 234.364777 16711422
16.813919 19.252735 234.499802 16645629
16.939175 19.249907 234.468353 16777215
17.454931 19.253496 234.544296 16777215
17.586355 19.256781 234.595612 16777215
18.894373 19.281120 234.993683 16514043
19.033899 19.291267 235.137955 16316664
19.290211 19.290739 235.144531 15724527
19.425995 19.297268 235.239807 15921906
20.067314 19.321499 235.268448 15658734
20.226315 19.383078 235.642044 16382457
20.742819 19.384272 235.685883 16579836
20.872961 19.385393 235.707977 15921906
21.397490 19.392902 235.837112 16777215
21.526865 19.393286 235.849243 16579836
21.945230 19.418413 236.209381 15000804
22.754025 19.444492 236.603333 16053492
23.406696 19.448828 236.696747 14869218
23.950230 19.467659 236.979004 13684944
24.088957 19.474293 237.075623 14079702
24.482307 19.477413 237.138733 11579568
25.162146 19.499189 237.467941 11579568
25.305971 19.508842 237.605362 12040119
25.440107 19.511707 237.651093 12763842
25.575644 19.515501 237.709351 12434877
26.251526 19.532621 237.975769 13421772
26.387815 19.536669 238.037521 13882323
26.514608 19.534382 238.013596 12500670
26.816980 19.561863 238.399109 12632256
27.074270 19.559505 238.381302 12698049
27.213545 19.565210 238.465439 11974326
27.613466 19.570557 238.558823 12829635
27.747961 19.573050 238.599564 11776947
27.900980 19.587212 238.798065 11447982
28.037039 19.616215 238.857925 11842740
28.996473 19.678370 239.279663 10395294
29.131958 19.681093 239.323486 10790052
29.272154 19.686642 239.405396 11119017
29.830517 19.706863 239.706421 12303291
29.968605 19.710907 239.768051 12829635
30.105457 19.714180 239.819321 13224393
30.236004 19.713720 239.820236 12566463
30.664850 19.733898 240.113663 10790052
31.375854 19.764191 240.557816 10921638
31.502222 19.761137 240.523788 10197915
31.645695 19.767729 240.619843 10066329
31.936346 19.782808 240.837479 12434877
32.213398 19.790092 240.950058 10395294
32.489594 19.796772 241.054489 10395294
32.922909 19.816877 241.347183 10790052
33.066921 19.823233 241.440079 11119017
33.209003 19.828495 241.518250 11382189
33.769855 19.845129 241.771393 9408399
34.353806 19.873230 242.179306 10263708
34.931133 19.897011 242.529007 9737364
35.209576 19.903397 242.629639 10000536
35.636543 19.928017 242.843536 9737364
35.801350 19.982105 243.073975 10066329
36.367115 20.010971 243.323578 11908533
36.647320 20.017542 243.426559 10329501
37.097126 20.041576 243.771805 9671571
37.692429 20.070637 244.192062 9211020
38.003384 20.091188 244.483231 9474192
38.266113 20.088577 244.462784 9342606
38.418411 20.097166 244.585709 9079434
39.006950 20.121277 244.939545 10132122
39.444168 20.136957 245.172668 9342606
39.619583 20.155745 245.432861 10263708
40.038876 20.162668 245.548203 10987431
40.667919 20.203049 246.121307 9605778
41.112835 20.220659 246.380585 8947848
41.276478 20.233242 246.557373 8487297
41.720032 20.249689 246.801071 9145227
42.175964 20.271166 247.112518 9276813
42.331005 20.279552 247.232895 9342606
42.478386 20.284575 247.307953 9211020
42.797363 20.367085 247.608673 9013641
43.405617 20.394424 248.005661 8026746
43.869984 20.417892 248.343231 9342606
44.027264 20.426657 248.468414 9474192
44.467449 20.439438 248.662598 7829367
44.956921 20.472269 249.126022 7763574
45.116352 20.481544 249.258087 8092539
45.421967 20.494501 249.447189 8355711
45.912159 20.526482 249.899353 7368816
46.341953 20.533634 250.018143 7829367
46.545452 20.560076 250.380844 7566195
46.860889 20.576077 250.610916 8026746
47.016411 20.583130 250.713257 8289918
47.335560 20.600298 250.959091 8355711
47.504772 20.612591 251.131821 8289918
47.816013 20.626331 251.331650 8684676
47.976448 20.635014 251.455917 7895160
48.307495 20.656160 251.755280 8421504
48.462090 20.662418 251.846970 8355711
49.277267 20.772303 252.524734 8487297
49.451622 20.785831 252.713638 8421504
49.926411 20.807705 253.029755 7631988
50.417229 20.835194 253.421173 7631988
50.741417 20.852127 253.663483 7500402
50.902657 20.860201 253.779388 7500402
51.241009 20.882076 254.087936 8026746
51.403980 20.890631 254.210312 7631988
51.733147 20.908775 254.468964 7039851
52.078285 20.932537 254.802902 7566195
52.232735 20.937729 254.880234 7434609
52.755325 20.974491 255.396240 8158332
53.098049 20.996624 255.708450 7697781
53.597237 21.024059 256.099609 7697781
54.446087 21.074705 256.817627 7303023
54.778931 21.092234 257.068359 8092539
54.985832 21.115044 257.381958 7763574
55.153271 21.124006 257.509979 7303023
55.337143 21.138622 257.713806 7960953
55.666832 21.218676 257.952393 7500402
56.033821 21.247265 258.350281 7895160
56.205933 21.257534 258.495453 7566195
56.392174 21.272593 258.704651 7368816
56.552723 21.278784 258.795380 7566195
56.713787 21.285118 258.888000 7105644
57.448128 21.340536 259.660614 7303023
57.781372 21.356411 259.888824 6645093
57.973644 21.372889 260.117065 7566195
58.163860 21.388590 260.334991 8026746
58.349834 21.402798 260.532928 7500402
59.056492 21.446606 261.150726 7697781
59.412273 21.468979 261.465973 6513507
59.586002 21.478714 261.604218 6842472
59.772190 21.492477 261.796295 6710886
60.139771 21.518234 262.156860 6250335
60.356869 21.541838 262.480530 6908265
60.552135 21.558249 262.708099 6381921
61.250595 21.596569 263.253021 6776679
61.459312 21.616951 263.533752 6776679
61.811420 21.702024 263.822327 7039851
61.999119 21.715519 264.010406 6316128
62.395042 21.748829 264.470886 5921370
62.570202 21.758137 264.603180 6118749
62.753529 21.769981 264.769318 5987163
62.905369 21.771835 264.802277 5855577
63.151939 21.803490 265.232544 5723991
63.392906 21.833237 265.637390 5460819
64.112549 21.874851 266.225372 6184542
64.296005 21.886230 266.385376 6513507
64.543930 21.917521 266.810913 6381921
65.110641 21.956059 267.349792 5921370
65.473656 21.976917 267.644623 5723991
65.697510 22.000210 267.963623 5789784
65.881500 22.011242 268.119110 6579300
66.079613 22.026520 268.331238 6579300
66.499207 22.063934 268.847015 6250335
66.675957 22.072529 268.970032 6645093
66.878632 22.088898 269.196777 6579300
67.122520 22.117586 269.587860 7039851
67.487236 22.137728 269.873352 6184542
67.699547 22.203573 270.141113 6184542
67.923317 22.245840 270.449463 6842472
68.101715 22.254547 270.573730 6974058
68.307312 22.271315 270.805176 6776679
68.890442 22.311203 271.361145 6316128
69.103699 22.329954 271.619049 6447714
69.297195 22.342798 271.798401 6776679
69.536896 22.369167 272.157623 7105644
70.196106 22.430086 272.993561 6776679
70.618790 22.465368 273.480011 7039851
70.780617 22.468519 273.530518 7895160
71.005524 22.489923 273.823853 6447714
71.263947 22.520922 274.244843 6974058
71.649895 22.544847 274.580353 8026746
72.098831 22.586611 275.153259 8092539
72.495911 22.613213 275.524506 7763574
72.774399 22.649193 276.011902 7566195
72.994629 22.668465 276.277039 7237230
73.596642 22.709213 276.845367 7303023
73.908897 22.817530 277.460052 6908265
74.124382 22.840143 277.702423 7303023
74.306183 22.848145 277.817352 7105644
74.529091 22.867662 278.085052 7171437
74.957268 22.901514 278.551697 6776679
75.246429 22.939302 279.061829 7039851
75.484886 22.962799 279.382355 7303023
75.660721 22.968777 279.470490 7237230
75.985771 23.016150 280.107849 7039851
76.233932 23.042028 280.460052 7697781
76.606667 23.059357 280.707764 7500402
76.757317 23.058130 280.700378 7434609
77.038757 23.092850 281.169952 7697781
77.335320 23.131573 281.692688 7434609
77.766655 23.164351 282.145508 8750469
78.010101 23.188210 282.471100 8289918
78.764732 23.265787 283.527527 8618883
79.005737 23.288584 283.839081 9408399
79.481384 23.332186 284.435822 8355711
79.726555 23.381769 284.761963 8092539
79.928909 23.420084 284.934357 8158332
80.193130 23.466709 285.324890 8553090
80.462570 23.496664 285.730316 8487297
80.914085 23.532875 286.227661 8421504
81.475304 23.597982 287.107452 9474192
81.983246 23.648455 287.793671 9671571
82.251091 23.677210 288.183380 8355711
82.501755 23.701315 288.511597 8947848
82.760704 23.727507 288.867432 9211020
83.281784 23.780415 289.586121 9079434
83.530441 23.803600 289.902252 9079434
83.856171 23.846848 290.483917 8618883
84.119713 23.873695 290.848572 8618883
84.877769 23.945160 291.822449 9671571
85.178963 23.981361 292.310974 9868950
85.754448 24.071909 293.193878 9671571
86.277550 24.169716 293.894318 10066329
86.543777 24.196388 294.255737 10132122
86.827759 24.227522 294.676056 10066329
87.931107 24.342558 296.232269 10526880
88.277672 24.389050 296.855408 10658466
88.547371 24.415833 297.218445 10526880
88.867950 24.455420 297.750549 11513775
89.347946 24.493418 298.271301 11579568
90.075531 24.635298 300.153778 12303291
-22.144550 25.884695 312.878021 16777215
-9.074811 19.369057 234.565414 10329501
-7.779162 19.319176 233.961426 11842740
-7.652030 19.318933 233.964890 11250603
-6.112744 19.277607 233.489059 12171705
-5.983745 19.271219 233.409760 11184810
-5.472800 19.284800 233.232803 14342874
-4.835929 19.277325 233.096237 13355979
-3.438208 19.276941 232.818924 13882323
-3.311967 19.278471 232.846191 12500670
-3.185019 19.276245 232.823044 11974326
-1.916591 19.250854 232.549515 13355979
-1.663635 19.249798 232.548798 13355979
-0.525166 19.238205 232.453674 15592941
0.738480 19.220390 232.281662 16711422
2.254570 19.215313 232.294128 16777215
2.632165 19.204727 232.172043 16514043
3.390756 19.206556 232.236969 16777215
4.022094 19.203232 232.225922 16777215
4.275183 19.204174 232.252045 16777215
4.400598 19.200191 232.205231 16777215
4.777616 19.192095 232.116531 16777215
4.901741 19.184238 232.017639 16777215
5.664301 19.197634 232.238113 16777215
6.047014 19.206852 232.382278 16777215
6.170862 19.199320 232.287735 16777215
6.424618 19.201214 232.326660 16777215
7.436352 19.199257 232.354202 16777215
8.705395 19.204758 232.495621 16777215
9.855989 19.222147 232.790390 16777215
9.980348 19.217775 232.738297 16777215
10.232074 19.214365 232.705872 16777215
11.000134 19.286816 232.929214 16777215
11.130635 19.292236 233.008743 16777215
11.260610 19.296713 233.075623 16777215
11.382957 19.289505 232.985748 16777215
11.510653 19.290470 233.005508 16777215
11.640367 19.294399 233.065063 16777215
12.407241 19.300179 233.183548 16777215
12.546443 19.316748 233.412750 16777215
13.686681 19.309292 233.374146 16777215
13.823914 19.321695 233.547501 16777215
14.342954 19.332907 233.725372 16777215
14.470694 19.333143 233.735413 16777215
14.864383 19.345997 233.928543 16777215
14.994918 19.349316 233.979950 16777215
15.120269 19.346621 233.950623 16777215
15.247242 19.345808 233.946548 16777215
15.755021 19.342482 233.929291 16777215
16.409500 19.359344 234.190048 16777215
16.940218 19.379103 234.482956 16777215
17.070511 19.381407 234.520782 16711422
17.582945 19.381575 234.550507 14408667
17.846790 19.389048 234.664673 16514043
18.232368 19.390083 234.699234 16645629
18.890860 19.406206 234.950333 16645629
19.030470 19.416527 235.095932 15395562
19.290106 19.419037 235.143448 15066597
20.070330 19.427164 235.294083 16448250
20.224174 19.509840 235.617233 16514043
20.869547 19.511147 235.669586 16053492
21.392637 19.517593 235.783829 16777215
21.527863 19.522770 235.860199 16777215
22.081160 19.552687 236.289062 16053492
22.751471 19.571552 236.576889 14540253
22.888155 19.577198 236.659561 15856113
23.404917 19.576548 236.678848 15263976
23.944757 19.592821 236.925049 13355979
25.171015 19.634821 237.551453 13027014
25.303894 19.636868 237.585938 12434877
25.438078 19.639795 237.632217 13290186
26.510145 19.661051 237.973663 11711154
26.668900 19.680006 238.235016 12895428
27.207417 19.691088 238.411911 12698049
27.611616 19.699270 238.542892 13553358
27.893255 19.712320 238.732162 11711154
29.119036 19.803429 239.217514 10921638
29.266279 19.813353 239.357407 11053224
29.964790 19.839094 239.737549 14935011
