# .PCD v0.7 - Point Cloud Data file format
VERSION 0.7
FIELDS x y z rgb
SIZE 4 4 4 4
TYPE F F F U
COUNT 1 1 1 1
WIDTH 1198
HEIGHT 1
VIEWPOINT 0 0 0 1 0 0 0
POINTS 1198
DATA ascii
46.149055 10.926612 260.446625 3552822
46.278828 10.924265 260.380035 3223857
46.425835 10.925191 260.410278 3289650
46.581131 10.927675 260.486664 2829099
46.719975 10.927050 260.471008 3618615
46.865238 10.927631 260.491058 4079166
47.142036 10.926224 260.455109 2697513
47.298153 10.928817 260.534698 2829099
48.367508 10.942256 260.952393 2565927
48.515007 10.943173 260.982391 2631720
48.933445 10.941564 260.943329 2565927
49.689476 10.949325 261.187286 2631720
49.848766 10.952277 261.277557 2368548
50.009785 10.955517 261.376312 2763306
50.274830 10.951953 261.276520 2697513
50.429867 10.954120 261.343506 2434341
50.584457 10.956195 261.407806 2368548
51.652294 10.967947 261.775726 2105376
51.933292 10.967122 261.757050 2236962
53.176975 10.983791 262.273468 2302755
53.328732 10.985208 262.318268 2236962
54.406891 10.997484 262.701874 1973790
55.195370 11.008915 263.054718 2171169
55.343674 11.009659 263.079620 2105376
55.489582 11.010016 263.093079 2171169
55.637154 11.010635 263.114288 2368548
55.805901 11.014619 263.235138 2039583
56.267254 11.019361 263.384186 2171169
56.750118 11.027393 263.630737 2302755
57.544704 11.038929 263.986786 1973790
57.846546 11.040999 264.053864 2236962
57.996815 11.041925 264.084198 2039583
58.496670 11.052146 264.395569 2105376
58.657288 11.054607 264.471344 2171169
58.776466 11.050774 264.360718 1907997
59.155579 11.064394 264.769897 1907997
59.453125 11.065636 264.812469 1973790
59.608070 11.067175 264.860992 1842204
60.000355 11.082511 265.321014 1907997
60.110264 11.077302 265.169617 1907997
60.275883 11.080380 265.263702 1842204
60.773960 11.089704 265.548615 1907997
61.057571 11.088744 265.526001 1842204
61.603981 11.104925 266.014069 1907997
-19.470661 11.201862 264.944000 4144959
0.548270 11.072588 261.563232 2105376
0.690566 11.073112 261.581360 1842204
2.530721 11.040873 260.675537 1973790
2.816011 11.046106 260.834229 1842204
3.527066 11.050122 260.965759 2105376
3.664960 11.040485 260.686798 2039583
3.951179 11.046219 260.860077 2039583
4.091765 11.043409 260.780762 1907997
4.652532 11.030830 260.424194 1973790
5.081517 11.037628 260.631439 2171169
5.776596 11.016553 260.029205 1710618
6.768582 11.018639 260.109894 2236962
7.187754 11.012024 259.924896 2368548
7.896854 11.014151 260.001160 2105376
9.577432 10.998194 259.568115 2368548
9.864127 11.001907 259.682343 2302755
10.278437 10.993626 259.448547 2368548
10.698009 10.990295 259.359528 2302755
12.104473 10.986449 259.275055 2631720
13.080050 10.978112 259.050751 2368548
13.366443 10.980973 259.140076 2368548
13.790244 10.981341 259.159271 2500134
14.338792 10.971647 258.886780 2236962
14.621389 10.972071 258.904785 2565927
14.761571 10.971609 258.894073 2829099
15.879793 10.966357 258.762817 2960685
16.021704 10.966916 258.781952 3223857
16.166023 10.968772 258.839081 3487029
16.307657 10.969147 258.852875 3421236
17.138304 10.961412 258.643311 3552822
17.414440 10.958612 258.566925 3092271
17.694284 10.957735 258.546844 3026478
18.819061 10.956952 258.546326 4605510
18.962675 10.958253 258.587189 3947580
19.248302 10.960062 258.645752 4539717
20.497263 10.951939 258.433136 4079166
20.639204 10.952440 258.450623 4802889
20.777258 10.951288 258.419708 4473924
22.033186 10.946894 258.316193 3487029
22.166466 10.943947 258.232727 3750201
22.315882 10.947389 258.336304 3684408
22.596247 10.946960 258.329346 3815994
22.743975 10.949664 258.411316 3750201
23.016653 10.946275 258.317688 4342338
23.304718 10.948765 258.396179 3158064
23.448566 10.949917 258.432709 3618615
23.579445 10.946222 258.327301 3750201
24.839689 10.943913 258.284851 3881787
24.977270 10.942804 258.255188 3026478
25.123541 10.944747 258.314880 3421236
25.264858 10.944944 258.323456 4276545
28.811220 10.953045 258.630768 2434341
30.900715 10.945856 258.462158 3355443
31.727545 10.940710 258.328186 3618615
31.879120 10.943673 258.417816 3881787
32.160194 10.943485 258.417908 4408131
32.306145 10.944864 258.461121 3750201
32.454887 10.946988 258.526154 3881787
32.589397 10.945251 258.478058 4408131
32.879288 10.947404 258.546753 4473924
33.021805 10.947818 258.561676 4079166
33.158802 10.946764 258.533600 4013373
33.455482 10.950648 258.653015 3947580
33.715981 10.945024 258.493835 3618615
33.858562 10.945452 258.509125 3750201
34.010288 10.948238 258.593628 4210752
34.295940 10.949175 258.626678 4737096
35.281223 10.948696 258.632263 4342338
35.434971 10.951855 258.727661 4079166
36.570759 10.953541 258.799500 3947580
36.707687 10.952531 258.772705 3881787
37.289551 10.956628 258.904053 4276545
37.442646 10.959427 258.988892 4473924
37.997852 10.957150 258.933380 3618615
38.144920 10.958499 258.975739 3618615
38.285259 10.958289 258.972382 3355443
38.426231 10.958225 258.973328 3487029
38.720852 10.960981 259.059753 3289650
38.866917 10.962061 259.094208 3684408
39.007206 10.961827 259.090179 3815994
39.148697 10.961865 259.094086 3289650
39.439938 10.963784 259.155975 4013373
39.702019 10.959201 259.027191 3223857
39.876686 10.966582 259.246429 3750201
40.302647 10.966953 259.265747 3158064
40.445412 10.967244 259.277100 3421236
40.861435 10.965450 259.232941 3355443
41.019264 10.968980 259.339264 3355443
42.636787 10.981635 259.741333 3158064
43.771538 10.981823 259.769348 2697513
43.926193 10.984421 259.848358 3158064
44.071049 11.016451 259.877869 3684408
44.212799 11.015268 259.880005 3355443
44.361897 11.022738 259.927063 3026478
44.652519 11.028687 259.974243 3026478
46.575165 11.067828 260.453186 2894892
46.719921 11.068321 260.470551 3421236
46.832062 11.062595 260.306854 3684408
47.133682 11.065894 260.408875 3421236
48.341766 11.078969 260.813599 2500134
48.505161 11.082841 260.929352 2500134
48.927101 11.081845 260.909393 2894892
49.219528 11.083211 260.955170 2171169
49.873291 11.098267 261.405670 2434341
50.001438 11.095654 261.332581 2697513
50.427406 11.095276 261.330597 2302755
50.584866 11.097890 261.409729 2302755
51.245674 11.113618 261.879852 2236962
51.514824 11.110681 261.800354 2039583
52.092258 11.111635 261.840210 2434341
52.241875 11.112773 261.876373 2565927
52.716141 11.120474 262.109741 2171169
52.878536 11.123744 262.208038 2302755
53.300690 11.122484 262.180389 2171169
54.241528 11.136023 262.592926 2171169
54.552013 11.139921 262.712524 1907997
54.703564 11.141246 262.754150 2039583
55.191978 11.150689 263.038361 2105376
55.499695 11.153995 263.140717 2236962
55.646729 11.154528 263.159302 2368548
55.802177 11.156418 263.217407 2039583
57.324974 11.169772 263.636871 2236962
57.538734 11.180731 263.959229 2171169
57.827805 11.180832 263.968262 2039583
57.974838 11.181271 263.984100 1973790
58.476757 11.191988 264.305542 2565927
58.624813 11.192551 264.324982 2763306
58.794464 11.196438 264.441284 1973790
59.605648 11.209939 264.850037 1907997
60.257336 11.220912 265.182007 2105376
60.927414 11.234413 265.587738 1907997
61.071617 11.234274 265.586761 2368548
61.583332 11.245557 265.924835 1842204
-20.049370 11.485296 266.861237 2434341
-19.447260 11.337609 264.622345 4342338
-16.352831 15.892313 370.584076 16777215
0.690284 11.214827 261.512756 1644825
0.831608 11.205982 261.261353 1907997
1.539819 11.193357 260.913116 1842204
1.824413 11.197010 261.024109 2171169
2.247403 11.185635 260.705841 2171169
2.673890 11.189121 260.815033 1579032
3.522799 11.183227 260.663269 2105376
3.806383 11.183203 260.668518 1973790
3.947133 11.180843 260.603607 1842204
4.087356 11.177496 260.510284 1907997
5.356580 11.166935 260.233124 2039583
5.775318 11.157667 259.975372 2039583
6.059103 11.158970 260.018768 2039583
7.186065 11.152864 259.866760 2631720
7.893613 11.153422 259.897614 2171169
8.450578 11.144160 259.642914 2236962
9.863711 11.144176 259.672913 2368548
11.551422 11.137629 259.519958 2171169
12.242929 11.126788 259.222687 2697513
13.077518 11.118504 259.001892 2368548
13.914737 11.112831 258.856262 2697513
14.196932 11.113038 258.868134 2302755
14.620086 11.113234 258.882629 2105376
14.760530 11.112926 258.876678 2697513
15.595868 11.106956 258.722504 2565927
15.878379 11.107378 258.740570 3092271
16.302788 11.108324 258.776642 3026478
18.393421 11.096946 258.493164 5592405
18.817133 11.097586 258.520447 4802889
18.954216 11.095832 258.472870 5395026
19.098906 11.097660 258.528473 3947580
19.248255 11.101623 258.645538 4473924
20.353180 11.091889 258.388763 4079166
20.491135 11.090672 258.356628 3815994
20.634005 11.091595 258.386169 3750201
20.774555 11.091509 258.386627 4473924
21.201614 11.093524 258.453522 4276545
21.751862 11.088207 258.312134 3815994
22.026623 11.085496 258.239899 3421236
22.172213 11.087468 258.299683 3487029
22.308575 11.085724 258.252350 3684408
22.738214 11.088682 258.346436 4079166
23.446508 11.090390 258.410400 3684408
23.709431 11.083360 258.213684 3881787
23.995283 11.085019 258.267395 4144959
24.551239 11.082485 258.206177 4079166
24.826166 11.080158 258.144989 3421236
24.973524 11.082548 258.216827 3487029
25.121929 11.085283 258.298584 3421236
25.262865 11.085347 258.303375 3947580
26.517822 11.081306 258.213409 4079166
26.657866 11.081078 258.209747 3487029
26.797823 11.080822 258.205353 4408131
27.491533 11.077592 258.126984 4605510
27.792446 11.083868 258.313782 3815994
27.947750 11.088507 258.450409 3881787
28.101553 11.092621 258.571960 3684408
30.896154 11.085450 258.424194 3552822
31.026510 11.082417 258.339691 3487029
31.163334 11.081264 258.309418 4144959
32.020576 11.084670 258.425323 4737096
32.298489 11.083591 258.400085 4144959
32.444977 11.085132 258.447479 3815994
32.585011 11.084888 258.443390 4342338
33.017017 11.087389 258.524353 4605510
33.853012 11.084783 258.466888 4408131
36.705681 11.092850 258.758575 4408131
37.279465 11.095060 258.834167 4408131
37.438156 11.099247 258.957886 4934475
38.139179 11.098004 258.936829 3750201
38.282909 11.098584 258.956512 3487029
38.717590 11.101100 259.037964 3421236
39.006523 11.102548 259.085632 3223857
39.437263 11.104070 259.138397 3487029
39.568630 11.101804 259.075989 3223857
39.711010 11.102036 259.085663 3618615
39.861771 11.104152 259.149658 3684408
40.020081 11.107942 259.261963 3092271
40.296261 11.106445 259.224731 3618615
40.443359 11.107701 259.263885 4079166
40.860786 11.106176 259.228790 3158064
41.008434 11.107533 259.270874 3552822
41.156246 11.108914 259.313690 3552822
41.301262 11.109679 259.338745 3684408
41.592358 11.111421 259.394928 2960685
43.921196 11.149259 259.825592 2960685
44.208675 11.151652 259.854675 2960685
44.358078 11.159513 259.903656 2894892
44.640862 11.156332 259.903473 2829099
44.934235 11.165518 259.967102 3092271
45.660614 11.179942 260.080841 2565927
46.574497 11.208976 260.449310 2697513
46.715736 11.208789 260.447083 2960685
46.842510 11.205802 260.364655 3223857
47.119289 11.204350 260.329346 2829099
47.730499 11.212453 260.574097 2763306
49.080765 11.225338 260.971710 2829099
49.365700 11.225319 260.977478 2565927
49.893051 11.243529 261.508850 2763306
50.423790 11.236211 261.311707 2236962
50.585976 11.239714 261.415283 2236962
50.742115 11.242112 261.487183 2763306
51.200428 11.247423 261.648895 2631720
51.370277 11.252204 261.789093 2171169
52.232864 11.253007 261.831085 2105376
52.387146 11.254967 261.890442 2368548
52.527031 11.254416 261.877808 2236962
52.693176 11.258413 261.995575 2105376
52.856499 11.261902 262.098755 2039583
53.470417 11.268939 262.313141 1776411
53.759106 11.269293 262.329651 1907997
54.258312 11.280967 262.673859 2434341
54.396873 11.280135 262.653168 2565927
54.840019 11.282245 262.723175 2105376
55.010166 11.286671 262.853271 1973790
55.503437 11.296974 263.158234 2171169
55.657295 11.298633 263.208984 2302755
55.938416 11.297566 263.184753 2236962
56.094101 11.299507 263.243591 2565927
57.318775 11.311334 263.608215 2105376
57.692616 11.324990 264.006226 2105376
57.976910 11.324316 263.993286 1907997
58.633167 11.336740 264.362366 2039583
58.800877 11.340377 264.469879 2105376
59.604843 11.352942 264.846252 1710618
60.252659 11.363478 265.161255 1776411
60.400852 11.363976 265.178741 2236962
60.933716 11.378847 265.614960 1842204
61.212688 11.377125 265.571991 1842204
61.510235 11.378208 265.609497 1842204
-24.529026 16.457529 378.572510 16777215
-7.193132 12.473574 286.598572 16777215
0.689992 11.356332 261.440399 2039583
0.831485 11.349410 261.247620 1973790
2.387920 11.324649 260.580994 1973790
2.673748 11.332454 260.808167 1710618
3.522098 11.325066 260.617676 2039583
3.664297 11.326108 260.650299 2500134
6.059716 11.302944 260.047302 2039583
7.043884 11.294770 259.837555 2302755
8.442133 11.277801 259.387970 1842204
9.006724 11.277718 259.398010 2236962
9.859826 11.283239 259.572998 2302755
11.391673 11.265378 259.101105 2500134
11.545792 11.275664 259.395599 2039583
11.678314 11.268916 259.207520 2500134
12.937362 11.261192 259.016571 2236962
13.077243 11.260405 258.997345 1973790
13.914294 11.254511 258.848907 2434341
15.454828 11.248672 258.717468 2829099
15.737444 11.249161 258.737488 3355443
16.147663 11.242150 258.548096 3618615
17.689651 11.238568 258.480560 3750201
18.246704 11.235541 258.407104 4276545
18.391479 11.237529 258.466522 5131854
19.097528 11.238531 258.510376 4868682
19.244898 11.241623 258.601135 4802889
20.068785 11.231973 258.346069 5263440
20.350002 11.231857 258.348999 4408131
20.623959 11.228547 258.261322 4013373
20.773281 11.232314 258.371185 4473924
21.877640 11.223282 258.139801 4276545
22.025278 11.226161 258.224518 3487029
22.170696 11.228093 258.282410 3421236
22.314802 11.229467 258.324463 3618615
22.734056 11.228267 258.299683 3815994
23.702030 11.221651 258.133667 3552822
23.841486 11.221191 258.123749 3815994
24.265444 11.221927 258.153839 3421236
24.692812 11.223878 258.218445 3947580
24.834028 11.224058 258.226654 3618615
24.973804 11.223713 258.219940 3421236
25.104591 11.220123 258.121216 3618615
26.366642 11.218700 258.108643 3947580
26.517357 11.222132 258.209076 4079166
26.657845 11.222047 258.209717 4144959
26.793114 11.220195 258.160278 4013373
26.942505 11.223116 258.246246 3618615
27.223139 11.222816 258.243927 3684408
27.789480 11.223880 258.286438 3750201
27.955631 11.232117 258.523193 3618615
28.105419 11.234981 258.607544 3684408
28.380449 11.232765 258.550873 3355443
28.691551 11.242020 258.819611 3750201
29.886343 11.219195 258.199890 3552822
30.026491 11.219007 258.197601 4144959
30.311020 11.219897 258.229034 3815994
30.600153 11.222133 258.298676 3815994
30.739298 11.221633 258.287567 3618615
30.885672 11.223262 258.336884 3421236
31.023649 11.222419 258.316040 3552822
31.159428 11.220942 258.277222 4408131
31.306629 11.222788 258.332703 4605510
31.453165 11.224424 258.382233 3947580
31.874556 11.224056 258.381042 3881787
32.295116 11.223454 258.373260 4605510
32.441410 11.224964 258.419189 4013373
32.584290 11.225509 258.437744 4013373
33.003281 11.224456 258.417145 3947580
33.988792 11.224172 258.430695 3552822
35.272144 11.227954 258.565887 4276545
39.008007 11.243767 259.095398 3815994
39.419956 11.240957 259.024933 4144959
40.010319 11.246645 259.198822 4013373
40.291874 11.246346 259.196533 4079166
40.439301 11.247692 259.237885 3815994
40.719994 11.247191 259.229858 4408131
40.856697 11.246130 259.202850 3684408
40.999519 11.246434 259.214569 4408131
41.151657 11.248797 259.284790 3552822
41.297287 11.249708 259.313782 4802889
41.440895 11.250168 259.329926 3881787
42.002354 11.249154 259.313568 3618615
42.311012 11.254670 259.476440 3552822
42.443138 11.252632 259.421661 3552822
42.599991 11.255898 259.517517 3750201
44.930431 11.302359 259.944122 3487029
45.225193 11.313091 260.015381 3355443
45.517746 11.321155 260.072601 2829099
46.706871 11.348308 260.397583 3092271
47.116894 11.345065 260.315979 2763306
47.719090 11.351540 260.511780 3026478
48.608196 11.358256 260.720978 3355443
48.925182 11.364327 260.898834 2697513
49.076107 11.365911 260.946808 2829099
49.211620 11.364595 260.912994 2565927
49.362984 11.366251 260.962952 2565927
49.513741 11.367783 261.009491 2368548
49.660332 11.368530 261.033875 2236962
50.578693 11.380010 261.377533 2368548
50.735813 11.382623 261.454590 2302755
51.190445 11.387348 261.597809 2302755
52.250942 11.397994 261.921326 2105376
52.548111 11.399927 261.982513 2565927
52.806198 11.394983 261.849609 2039583
53.753124 11.410250 262.300323 2236962
54.089783 11.418834 262.549194 2171169
54.252861 11.422193 262.647308 2236962
54.391396 11.421341 262.626587 2631720
55.006767 11.428320 262.836853 2500134
55.488708 11.436876 263.088318 2236962
55.611885 11.433432 262.994385 2105376
55.790852 11.439310 263.163666 2039583
56.083492 11.440139 263.193695 2302755
56.227276 11.440129 263.196747 2960685
56.372486 11.440354 263.206451 2368548
56.873112 11.451671 263.535858 1973790
57.195843 11.457319 263.701996 2302755
57.318386 11.453809 263.606232 1907997
57.990105 11.469165 264.053070 1776411
58.432243 11.470623 264.104248 1973790
58.609810 11.475916 264.257019 1973790
58.776402 11.479437 264.359772 2039583
59.445301 11.493742 264.777039 1907997
59.581177 11.492349 264.741058 1644825
60.250923 11.506478 265.153412 1776411
60.930084 11.521781 265.598907 1842204
-24.528801 16.621807 378.598145 16777215
-7.193274 12.632164 286.600128 16777215
1.255896 11.480959 260.913086 2039583
2.532218 11.477468 260.845123 1907997
2.673461 11.475291 260.787689 1776411
3.237543 11.465831 260.537079 1776411
4.087417 11.464604 260.522400 2236962
4.227670 11.461407 260.436523 2236962
5.213959 11.451579 260.185364 2368548
5.497605 11.452446 260.216003 1907997
7.042636 11.436035 259.794250 2236962
7.327385 11.438552 259.870880 1907997
9.006362 11.419881 259.389221 2829099
9.292982 11.424109 259.513611 2171169
9.857146 11.423319 259.504486 2302755
9.992679 11.418046 259.360718 2105376
10.273355 11.416545 259.325348 2039583
11.390634 11.406775 259.078766 2236962
11.533719 11.408411 259.127655 2105376
11.673012 11.407011 259.091827 2565927
11.817734 11.409879 259.175049 2368548
12.653763 11.402163 258.979248 2960685
12.938397 11.404039 259.038055 2171169
13.078799 11.403593 259.028839 1973790
13.488408 11.394375 258.781433 2500134
15.314409 11.390768 258.722809 3684408
16.005480 11.383039 258.523315 2697513
17.683981 11.377182 258.398651 3223857
17.819439 11.374450 258.325623 3552822
18.245815 11.376592 258.395081 3487029
18.390379 11.378502 258.451599 4079166
18.814829 11.379525 258.489838 4737096
19.234913 11.378397 258.468048 5329233
19.360777 11.371290 258.272949 6645093
22.022436 11.366182 258.191650 4013373
22.169411 11.368795 258.267822 3947580
22.309990 11.368733 258.269287 3947580
23.563738 11.363659 258.156677 3947580
23.703756 11.363399 258.152649 4276545
23.988611 11.364735 258.196381 3487029
25.238995 11.358832 258.060638 3421236
26.363976 11.358703 258.082794 3750201
26.516241 11.362728 258.198425 4342338
26.650127 11.360356 258.135406 3881787
26.933069 11.360871 258.156250 3881787
27.072100 11.360293 258.143341 3684408
27.634706 11.360189 258.153351 4408131
27.945442 11.369844 258.429443 3815994
28.100220 11.374404 258.559998 3618615
28.382523 11.374524 258.569824 3750201
29.743507 11.359376 258.179016 3421236
29.879715 11.357967 258.142883 4144959
30.021482 11.358276 258.154755 4013373
30.167204 11.359790 258.200256 4210752
30.306723 11.359402 258.192627 4408131
30.589407 11.359732 258.208313 3750201
30.869823 11.359375 258.204803 3487029
31.018993 11.361860 258.277466 4013373
31.159969 11.361898 258.281738 4276545
32.578465 11.364678 258.391724 4079166
33.699974 11.363032 258.371552 4210752
33.974781 11.361116 258.324493 3487029
35.260086 11.365561 258.477753 5066061
35.960415 11.364342 258.459839 3618615
36.102844 11.364705 258.473236 3947580
36.255840 11.367753 258.561646 4408131
36.693134 11.371295 258.670349 4408131
36.831409 11.370580 258.653564 4079166
39.540756 11.376974 258.893829 3881787
39.997784 11.384637 259.117767 4144959
40.286709 11.386034 259.163330 4079166
40.856991 11.387048 259.204620 3881787
40.994419 11.386135 259.182343 3618615
41.138134 11.386641 259.199738 3355443
41.429413 11.388499 259.258179 3750201
41.723816 11.391023 259.335236 3684408
41.860054 11.389847 259.305603 3289650
42.438770 11.392578 259.394928 4079166
42.596073 11.395991 259.493652 3881787
44.167870 11.398802 259.607971 3684408
45.200905 11.426167 259.869904 3158064
45.482098 11.471665 259.873444 3026478
45.661514 11.479340 260.089966 3092271
46.702858 11.488745 260.375122 2960685
47.284840 11.491339 260.460815 3026478
47.703625 11.489762 260.427338 3092271
48.000725 11.492217 260.502350 2763306
49.219173 11.507445 260.952759 2960685
49.359764 11.507071 260.945801 3026478
49.656662 11.509295 261.014435 3026478
49.809666 11.511253 261.072296 2763306
50.872555 11.523137 261.426483 2302755
51.006119 11.521429 261.382477 2302755
51.175476 11.526301 261.521271 2171169
52.521088 11.536941 261.847839 2434341
52.803253 11.536224 261.834839 2105376
53.594749 11.549583 262.223297 2302755
54.084030 11.559929 262.521149 2039583
54.836971 11.566039 262.708221 2236962
54.986805 11.567110 262.741425 2500134
55.121632 11.565606 262.703094 2368548
55.287457 11.569403 262.812073 2236962
55.956799 11.585405 263.270691 1973790
56.205154 11.578770 263.093201 2236962
56.363686 11.581237 263.165222 2171169
56.520493 11.583403 263.228882 2105376
56.880852 11.595477 263.571442 2368548
57.089966 11.606272 263.874969 2302755
57.244484 11.607970 263.925659 2171169
58.400944 11.608308 263.962799 1973790
58.929127 11.623646 264.399689 2039583
59.444141 11.636651 264.771667 2105376
59.908443 11.641409 264.914398 2236962
60.242992 11.648493 265.118347 2368548
60.348572 11.642282 264.949158 1973790
60.695251 11.651211 265.204407 2039583
-20.052128 11.889671 266.917114 2434341
-19.716778 11.840114 266.322083 5000268
-24.529234 16.832987 378.601349 16777215
-7.187778 12.782279 286.374329 16777215
0.971710 11.621914 260.831055 2039583
2.246625 11.613934 260.642609 2039583
2.388514 11.614367 260.657867 2236962
2.531372 11.618254 260.767914 1842204
3.522423 11.613121 260.650787 2039583
3.946250 11.609426 260.559570 2171169
4.226310 11.601851 260.358490 2171169
5.213755 11.594427 260.178406 2500134
5.496861 11.594394 260.184265 2236962
5.633152 11.585664 259.948059 2368548
5.916659 11.586643 259.981689 2171169
7.039742 11.575069 259.691040 2236962
7.182853 11.577398 259.758362 2171169
7.328547 11.582932 259.913605 2039583
8.449821 11.571433 259.624969 2171169
8.867895 11.565270 259.465912 2763306
9.429008 11.561507 259.376068 2631720
10.273011 11.558656 259.318024 2697513
11.390981 11.549285 259.087677 2368548
11.533656 11.550606 259.127319 2105376
12.510525 11.542594 258.930878 2434341
12.654467 11.544786 258.994476 2697513
13.073360 11.541808 258.922791 2171169
14.190236 11.534507 258.749176 2236962
14.473080 11.535178 258.774353 2236962
14.886155 11.529088 258.617157 3421236
15.028346 11.529931 258.643677 3158064
15.310081 11.529945 258.650787 2763306
16.150209 11.526992 258.589844 2960685
16.284761 11.523379 258.493958 2829099
17.681698 11.517497 258.365967 3947580
17.823261 11.517931 258.381226 3750201
18.246441 11.518405 258.404358 4342338
18.390356 11.520008 258.451752 3881787
19.219875 11.512564 258.267365 6184542
19.358446 11.511533 258.242401 6250335
19.496410 11.510224 258.209808 4868682
19.789474 11.515761 258.368683 4868682
20.068466 11.514574 258.342773 5000268
20.207678 11.513860 258.326508 4671303
20.615187 11.507169 258.152710 4473924
20.753843 11.506266 258.131256 4210752
21.315655 11.505911 258.134918 4934475
21.458115 11.506696 258.159851 3881787
21.869123 11.501982 258.040375 5329233
22.020039 11.506357 258.163971 4868682
22.163830 11.507668 258.203369 4276545
23.420752 11.503843 258.128448 4802889
23.562117 11.504113 258.139252 4013373
23.704590 11.504816 258.161926 3618615
23.976933 11.501279 258.071411 4013373
25.093714 11.498075 258.010193 4539717
25.228807 11.496020 257.957062 4210752
26.078772 11.498253 258.038605 4013373
26.222359 11.499293 258.070557 4013373
26.364176 11.499694 258.084930 3815994
26.500656 11.498206 258.047363 3552822
27.795736 11.507917 258.344666 3618615
27.938263 11.508476 258.363403 3092271
28.087009 11.511103 258.438995 3026478
28.255239 11.520167 258.691620 3092271
28.689079 11.523655 258.797638 3092271
29.407238 11.527658 258.924561 1842204
29.602865 11.500233 258.177032 3355443
30.158848 11.497999 258.129028 4144959
31.012348 11.500659 258.222382 4802889
33.691826 11.501495 258.309265 5131854
33.827038 11.499918 258.269226 4210752
33.975357 11.501964 258.328857 3947580
34.404896 11.503798 258.389435 4408131
35.111809 11.504339 258.421173 4210752
35.261436 11.506632 258.487610 4605510
35.667095 11.502050 258.371643 4079166
35.816994 11.504384 258.439240 4276545
35.956802 11.504069 258.433929 4408131
36.099949 11.504623 258.452545 5131854
36.246758 11.506118 258.497040 5000268
36.535061 11.507707 258.547516 4868682
36.683094 11.509483 258.599762 4408131
36.818203 11.507954 258.561066 4210752
38.110466 11.513438 258.742310 3881787
38.256794 11.514692 258.780212 4079166
38.541851 11.515323 258.804291 3684408
39.539917 11.517516 258.888306 4210752
41.123035 11.524031 259.104767 3750201
41.433418 11.530262 259.283112 4210752
42.291428 11.532189 259.356445 3684408
42.438301 11.533358 259.391998 4473924
42.592220 11.536072 259.470123 4210752
43.149303 11.533982 259.426117 3092271
43.289261 11.533615 259.419403 2829099
44.159424 11.537924 259.558350 3815994
45.343418 11.613353 259.888397 3289650
45.471600 11.610481 259.813416 3223857
45.650711 11.618212 260.028381 3421236
45.789150 11.617467 260.011566 3092271
45.933601 11.617968 260.028809 3092271
47.714470 11.633134 260.486267 2894892
47.858055 11.633386 260.496735 2829099
48.452271 11.638275 260.644714 2763306
49.362545 11.649029 260.960297 2631720
49.662704 11.651900 261.045959 3750201
49.793808 11.649693 260.989136 3223857
49.941143 11.650594 261.017334 2565927
50.709568 11.660975 261.319214 2434341
50.878979 11.665961 261.459259 2631720
51.004601 11.662735 261.374512 2368548
51.173721 11.667633 261.512115 2105376
51.304283 11.665337 261.452850 2039583
52.387421 11.680442 261.891235 2171169
52.505959 11.675968 261.772369 2631720
52.803490 11.678024 261.835815 1973790
53.750317 11.693698 262.286255 2171169
54.104023 11.705550 262.617828 2236962
54.834759 11.707804 262.697418 1973790
54.992741 11.710307 262.769562 2171169
55.266033 11.707876 262.710205 2105376
55.575760 11.711752 262.823486 2039583
55.922878 11.722000 263.111176 2368548
56.211025 11.722075 263.120422 2039583
56.518723 11.725466 263.220428 2171169
57.023003 11.737685 263.565765 2105376
58.119743 11.752234 263.989319 1776411
58.258709 11.751343 263.968536 2105376
58.396687 11.750292 263.943390 2039583
58.910587 11.763520 264.316437 1842204
59.225845 11.767777 264.440247 1907997
59.503796 11.765947 264.397339 1973790
59.880741 11.780092 264.791901 2171169
60.058521 11.785393 264.940674 1842204
60.383671 11.791047 265.102783 1842204
60.856613 11.797076 265.278748 1842204
-24.510956 17.032717 378.314728 16777215
0.689087 11.779942 261.212006 1842204
0.971487 11.764202 260.793854 1842204
2.105225 11.759368 260.691376 2171169
2.247868 11.762840 260.788696 2171169
2.953546 11.751317 260.494934 2105376
3.379369 11.753250 260.557709 1644825
3.942749 11.744594 260.337830 2105376
4.225852 11.744220 260.334778 1973790
5.499042 11.741343 260.288635 1973790
5.632574 11.727743 259.924591 2171169
5.915585 11.727974 259.937836 2039583
6.199327 11.729279 259.980103 2039583
7.041559 11.720330 259.759277 2236962
7.183172 11.720664 259.771790 2171169
7.327114 11.723997 259.865387 2302755
8.309075 11.714766 259.640411 2368548
8.584097 11.706350 259.419891 2763306
8.867802 11.707750 259.464752 2565927
9.998578 11.708576 259.515076 2236962
10.142468 11.711037 259.585114 2105376
10.277800 11.705506 259.439087 1973790
11.395230 11.695061 259.184631 1973790
11.533807 11.692975 259.131744 2105376
12.514027 11.687338 259.003754 2960685
13.071300 11.682361 258.883148 2039583
13.772229 11.679644 258.827118 2368548
14.051850 11.678106 258.792542 2960685
14.194017 11.678935 258.818451 3092271
14.885794 11.670644 258.611633 3947580
15.027830 11.671398 258.635529 3158064
15.308493 11.670743 258.624786 3355443
16.138601 11.661868 258.405640 3552822
16.272903 11.658108 258.307404 3026478
16.425291 11.664871 258.493866 2960685
17.682903 11.659650 258.384003 3684408
17.817406 11.656316 258.297302 3355443
17.961771 11.658248 258.353058 3684408
19.219021 11.653514 258.256348 6842472
19.354784 11.651088 258.194183 6447714
19.493484 11.650126 258.171661 6776679
20.065783 11.654677 258.308777 4210752
20.616217 11.648883 258.165894 5066061
20.749277 11.645398 258.075073 4539717
21.035549 11.647658 258.143219 4342338
22.846687 11.640229 257.987457 5197647
22.988775 11.640839 258.007446 4276545
23.129860 11.641028 258.016052 5592405
23.278168 11.644160 258.104340 5526612
23.413906 11.642156 258.053558 5789784
23.551170 11.640789 258.020050 4079166
24.807140 11.636997 257.948761 5197647
24.954222 11.639458 258.018860 5066061
25.089134 11.637284 257.963501 5263440
25.222544 11.634568 257.893433 5395026
25.373615 11.638489 258.003113 4605510
25.664240 11.641935 258.103394 4408131
26.214815 11.637482 257.996735 3684408
26.360832 11.639411 258.052490 3552822
27.798830 11.649974 258.373474 3815994
28.090797 11.653423 258.473877 4473924
28.242575 11.657072 258.576202 3881787
29.312565 11.638231 258.093781 2368548
29.459425 11.640200 258.150604 2960685
29.596155 11.638896 258.118805 3223857
33.395451 11.638060 258.190399 4013373
33.541420 11.639505 258.233063 4210752
33.694237 11.642870 258.327728 4210752
33.827763 11.640786 258.274780 4473924
33.972179 11.641766 258.304810 4079166
34.391750 11.640869 258.290985 4210752
34.540749 11.643088 258.354645 4671303
35.094059 11.640221 258.290863 5263440
35.246998 11.643456 258.382080 4473924
35.389969 11.643988 258.399994 3947580
35.806065 11.642146 258.360565 5789784
36.097370 11.644602 258.434113 4473924
36.387184 11.646626 258.495972 4473924
36.527283 11.646373 258.492615 4802889
36.660355 11.644298 258.439850 5131854
36.803936 11.644953 258.461121 5197647
36.955456 11.647646 258.537598 4013373
37.383617 11.648878 258.581512 3815994
37.531815 11.650670 258.633575 4144959
37.961216 11.652150 258.684235 4473924
38.098675 11.651217 258.662415 4144959
38.241741 11.651685 258.678619 3815994
38.513584 11.649078 258.614929 4671303
38.676548 11.654444 258.763916 4605510
38.951374 11.652569 258.720062 4276545
39.253460 11.657330 258.856171 4408131
39.537342 11.657634 258.871429 4210752
41.110477 11.661903 259.025787 4276545
41.567719 11.669465 259.241364 4605510
42.284748 11.671553 259.315521 3750201
42.567787 11.671516 259.321564 4079166
42.733185 11.676830 259.469208 4473924
42.871181 11.676009 259.450439 3815994
43.141296 11.673079 259.377991 3750201
43.299896 11.676817 259.482910 3289650
43.860336 11.675426 259.459229 4210752
44.017082 11.678689 259.551270 4408131
44.719334 11.710379 259.539795 3947580
45.469475 11.751003 259.801147 3355443
45.649033 11.758943 260.018707 3355443
45.933300 11.758975 260.026947 2763306
46.794529 11.760787 260.097839 2500134
46.929317 11.759284 260.061005 2565927
47.571236 11.774194 260.477478 2500134
47.706303 11.772725 260.441620 2565927
47.996906 11.773926 260.481323 2368548
48.162666 11.778620 260.611511 2368548
48.295795 11.776765 260.565216 2236962
48.424637 11.774066 260.496185 2302755
49.509483 11.791304 260.986542 2763306
49.663670 11.793552 261.050842 3552822
49.803963 11.793091 261.042084 3223857
49.936035 11.791039 260.990509 2763306
50.510452 11.791771 261.024994 2500134
50.866779 11.805279 261.396484 2631720
51.004238 11.804251 261.372467 2236962
51.146038 11.804049 261.370728 1973790
51.289261 11.804116 261.376251 2039583
51.451042 11.807675 261.475891 2105376
51.731712 11.806704 261.457092 2105376
51.875317 11.806830 261.464233 2171169
52.054287 11.813539 261.648773 2434341
52.515701 11.819503 261.820679 2236962
52.644047 11.816781 261.750977 2171169
52.815590 11.822004 261.895508 2171169
53.608585 11.835966 262.290466 2236962
54.984356 11.851003 262.729370 2500134
55.432621 11.854033 262.822266 2039583
55.591202 11.856636 262.896149 1842204
55.907536 11.861653 263.038910 2631720
56.505356 11.865520 263.158081 2500134
57.004364 11.877026 263.479584 2302755
57.186211 11.883468 263.657043 2039583
58.257618 11.893856 263.963379 1973790
58.397587 11.893119 263.947235 1907997
58.620850 11.906283 264.306091 1907997
58.786270 11.909754 264.403442 1776411
59.087433 11.911726 264.464142 2171169
59.341366 11.905891 264.314240 1907997
59.496464 11.907620 264.364624 2039583
59.873749 11.922029 264.760803 2039583
60.074718 11.931193 265.011810 1907997
60.379456 11.933596 265.084106 1776411
-18.926308 11.875499 259.421967 16777215
-25.313828 17.710571 387.417419 16777215
0.547538 11.932835 261.447815 1842204
0.688887 11.922230 261.169281 2500134
0.971374 11.907458 260.783478 1776411
1.111515 11.893656 260.419830 1776411
2.247009 11.903110 260.700562 1776411
2.385882 11.891514 260.395569 2302755
2.526898 11.889161 260.336578 2039583
2.668461 11.888973 260.335236 2302755
3.094844 11.893647 260.470551 1973790
3.940807 11.883286 260.216614 1710618
4.082942 11.884611 260.255493 2039583
5.488998 11.867032 259.823853 2105376
5.630260 11.866834 259.822205 1973790
7.040447 11.861662 259.720856 1907997
7.178345 11.857041 259.601440 2171169
7.325941 11.865351 259.826324 2039583
8.308719 11.857063 259.631042 1973790
8.584112 11.848939 259.421936 1973790
8.869658 11.852349 259.520050 2171169
10.004311 11.856658 259.663849 2171169
10.140528 11.851767 259.537170 2565927
10.274572 11.844963 259.359589 2500134
11.389536 11.832523 259.057220 2565927
11.531289 11.833117 259.076660 2039583
12.507036 11.824073 258.861084 2565927
12.795623 11.829109 259.002502 2500134
13.071775 11.824740 258.893341 2171169
13.487506 11.819580 258.766724 2500134
13.770761 11.820576 258.800507 2236962
14.051739 11.819958 258.791260 2960685
14.601680 11.810826 258.562408 2565927
14.742317 11.810707 258.562866 2434341
14.885705 11.812369 258.610779 2697513
15.027847 11.813199 258.636505 2960685
15.306242 11.811093 258.587646 3158064
16.272757 11.799563 258.305664 3158064
17.681648 11.800481 258.366272 4737096
17.817408 11.797776 258.297791 4539717
19.075676 11.793552 258.217712 5526612
19.216148 11.793441 258.218384 4737096
19.354284 11.792166 258.187988 5131854
20.615751 11.789912 258.160431 7039851
20.749477 11.786681 258.077881 5987163
20.890848 11.787018 258.090485 5395026
21.033131 11.787765 258.114014 6447714
22.847206 11.781486 257.993561 4144959
23.126831 11.780807 257.982666 5395026
23.273540 11.783327 258.053497 5263440
23.408508 11.780982 257.994568 4408131
24.805050 11.777106 257.927307 4605510
24.952112 11.779595 257.997314 5592405
25.082344 11.775592 257.894135 5197647
25.221298 11.774962 257.880951 5131854
25.366407 11.776675 257.930267 6118749
25.653196 11.778753 257.992920 5855577
26.210850 11.776904 257.958038 4342338
26.617657 11.771417 257.822479 4671303
27.786283 11.786633 258.257385 4342338
28.090870 11.794505 258.474670 4144959
28.231010 11.794224 258.470795 3618615
29.301529 11.775386 257.997040 2763306
29.455278 11.779651 258.114471 3289650
29.595478 11.779460 258.113007 3223857
30.848808 11.775123 258.029785 4868682
31.125906 11.773753 258.000458 4605510
31.551426 11.774753 258.037994 4276545
31.973755 11.774753 258.048828 5526612
32.118816 11.776035 258.086700 4539717
32.259640 11.776041 258.090454 5197647
32.406059 11.777709 258.138611 5329233
32.545826 11.777391 258.133759 5000268
32.684605 11.776783 258.121155 4737096
32.828476 11.777676 258.148560 4473924
33.106697 11.776661 258.128723 5329233
33.387184 11.776313 258.126678 5592405
33.529980 11.776874 258.145264 5066061
33.805458 11.775094 258.104980 5329233
33.962170 11.779601 258.228943 5197647
34.385979 11.779901 258.247772 4210752
34.523960 11.779078 258.229431 4342338
34.675724 11.782094 258.313599 5000268
35.230690 11.779651 258.262848 4079166
35.379776 11.781871 258.325745 4144959
36.095638 11.784788 258.421753 4934475
36.520451 11.785227 258.444366 4276545
36.658417 11.784412 258.426239 4276545
36.943375 11.785154 258.453308 4737096
37.096916 11.788400 258.543579 4737096
37.512772 11.786461 258.502686 4539717
37.665417 11.789419 258.585297 3750201
37.951294 11.790325 258.616760 4408131
38.233360 11.790251 258.622009 4144959
38.649742 11.788456 258.584961 4342338
38.809078 11.792978 258.709381 4473924
38.949684 11.792821 258.708832 4934475
39.245895 11.796201 258.806366 4737096
39.525829 11.795548 258.796204 4605510
39.674805 11.797419 258.849792 4737096
39.819347 11.798200 258.874268 5000268
41.104290 11.801188 258.986816 5329233
41.248978 11.801953 259.010895 4013373
42.575279 11.814056 259.367004 3487029
42.855316 11.813318 259.354553 3750201
43.135506 11.812620 259.343170 3289650
43.295620 11.816752 259.457245 3750201
43.731358 11.819099 259.530884 4868682
43.868797 11.818147 259.509064 3618615
44.009705 11.817962 259.507782 3947580
45.345257 11.895790 259.898621 3158064
45.621006 11.894020 259.859253 3750201
45.925526 11.898391 259.982880 3355443
46.082752 11.901608 260.072083 3684408
46.786087 11.900092 260.050842 2960685
46.922688 11.898944 260.024170 2697513
47.581520 11.917555 260.533508 2829099
48.144402 11.916197 260.512695 2500134
48.292946 11.917447 260.549713 2697513
48.422604 11.914869 260.485077 2500134
49.488373 11.928559 260.875305 2631720
49.649521 11.932224 260.976440 2763306
49.804710 11.934693 261.045837 2960685
49.941017 11.933438 261.016327 2763306
50.080730 11.932858 261.004700 2368548
50.502583 11.931655 260.984222 2368548
50.659843 11.934481 261.063110 2434341
51.141171 11.944691 261.345734 2631720
51.280460 11.944004 261.331299 2631720
51.421627 11.943678 261.326477 2500134
51.870365 11.947487 261.439148 2105376
52.048336 11.954103 261.618713 2236962
52.515289 11.961189 261.818420 2171169
52.650997 11.959798 261.785309 2236962
52.822994 11.965176 261.931976 2434341
53.102592 11.963906 261.905914 2894892
54.039883 11.978124 262.306641 2302755
54.343800 11.981213 262.396393 2171169
54.505753 11.984552 262.488953 2434341
55.403542 11.991041 262.684448 2105376
55.582359 11.997287 262.854218 2171169
56.362507 12.008037 263.159119 2368548
56.502285 12.007308 263.143616 2302755
56.982620 12.015732 263.379059 2500134
57.165569 12.022466 263.561859 2302755
57.331928 12.026299 263.667572 2039583
57.465088 12.024390 263.620728 2171169
58.424961 12.040443 264.070526 1973790
58.623672 12.049630 264.318573 1973790
59.511555 12.052999 264.431335 1776411
59.914722 12.071899 264.941498 1710618
60.038082 12.068319 264.850220 1907997
60.373383 12.075816 265.057251 1644825
-22.989933 17.918665 387.307312 16777215
0.688509 12.062189 261.066742 2302755
0.830607 12.063385 261.101868 1907997
0.971117 12.049337 260.737335 1907997
1.679085 12.042969 260.589142 1907997
2.247019 12.046973 260.709229 2302755
2.385951 12.035409 260.409760 1973790
2.669735 12.037104 260.461731 2171169
3.094611 12.036488 260.456848 2236962
3.801552 12.032528 260.371826 1973790
3.940220 12.025180 260.182861 2631720
4.645709 12.020321 260.074219 1842204
4.787523 12.020949 260.094452 2039583
5.071025 12.021839 260.125305 1907997
5.347336 12.009505 259.809296 2236962
5.488906 12.009860 259.822357 2434341
7.039883 12.003713 259.702393 2039583
7.176292 11.997005 259.530121 2105376
8.583471 11.990782 259.404388 2697513
8.868001 11.993134 259.473572 2829099
9.007604 11.991355 259.430664 2368548
9.998497 11.993592 259.515625 2434341
10.131577 11.985667 259.311401 2368548
11.104910 11.972501 258.992096 2368548
11.659757 11.964767 258.804077 2368548
11.940211 11.963636 258.781860 2631720
12.506720 11.965870 258.855469 2500134
13.204900 11.960949 258.744995 2829099
13.484491 11.959334 258.710083 2039583
13.769724 11.961785 258.781921 2105376
13.912069 11.962778 258.811737 2894892
14.597528 11.949813 258.490051 3026478
14.733810 11.946823 258.415283 2960685
14.884245 11.953193 258.586243 3223857
15.026794 11.954304 258.619171 3158064
15.306693 11.953132 258.595886 3355443
16.001215 11.947141 258.457275 3092271
16.135397 11.943135 258.355804 2829099
16.280355 11.945673 258.426178 2500134
17.542519 11.942896 258.386902 4605510
17.681980 11.942169 258.371582 4868682
17.817627 11.939358 258.301453 5329233
19.069937 11.931962 258.140839 6579300
19.214396 11.933895 258.195343 6052956
19.354889 11.933794 258.196411 5329233
20.469128 11.928324 258.082611 6776679
20.752291 11.929199 258.113068 6118749
20.890831 11.928201 258.090607 5789784
21.032785 11.928802 258.110138 7697781
22.140978 11.921157 257.939117 5395026
22.281097 11.920948 257.937347 4408131
22.847961 11.922851 258.002319 4079166
23.126600 11.921731 257.980347 4737096
23.273092 11.924193 258.048798 4408131
24.940811 11.916108 257.881104 4408131
25.083366 11.916867 257.904785 4539717
25.221533 11.915916 257.883545 4868682
25.507828 11.917858 257.942047 5658198
27.501747 11.926571 258.223419 4802889
27.791616 11.929462 258.306915 4539717
28.087172 11.934273 258.440887 4210752
28.212488 11.928845 258.301910 4013373
30.421406 11.914155 257.975464 4802889
30.838371 11.912487 257.942810 5592405
30.983999 11.914035 257.987244 5526612
31.114653 11.910861 257.907532 4539717
31.249704 11.909092 257.864716 4473924
31.548187 11.914393 258.011627 4210752
31.973162 11.915201 258.044098 4408131
32.238312 11.910213 257.920349 5592405
32.398567 11.916107 258.079163 5066061
32.536095 11.915116 258.056854 4276545
32.675850 11.914800 258.052246 4934475
33.806747 11.916040 258.114807 5921370
33.959953 11.919598 258.212128 5658198
34.113617 11.923257 258.312134 5000268
35.228058 11.919514 258.243622 4934475
35.376488 11.921583 258.301788 5000268
35.945499 11.922956 258.352905 4539717
36.096748 11.925731 258.429657 4868682
36.242203 11.926916 258.464600 5066061
36.520702 11.925929 258.446136 4144959
37.503674 11.924705 258.440125 5197647
37.944683 11.929279 258.571777 4605510
38.221111 11.927763 258.539368 4408131
38.949562 11.933456 258.707977 4737096
39.374023 11.933622 258.723602 4210752
39.520184 11.934835 258.759277 4276545
39.655846 11.933442 258.726349 4671303
39.803822 11.935092 258.773529 5329233
39.946648 11.935465 258.787109 4605510
40.391804 11.940612 258.933868 4605510
40.953144 11.939582 258.921783 4276545
41.107422 11.942655 259.006439 3881787
42.557297 11.950768 259.257660 3552822
43.133488 11.952982 259.330994 3026478
43.423084 11.954402 259.375916 3552822
43.717735 11.956936 259.450165 4605510
44.010693 11.959055 259.513489 4737096
44.298824 12.001031 259.558655 4342338
45.345387 12.036845 259.899200 3026478
46.065563 12.038997 259.975128 2829099
46.359962 12.041187 260.040283 4079166
46.641975 12.040712 260.035706 3158064
46.786606 12.041245 260.053558 3092271
46.920689 12.039543 260.012970 3158064
48.132671 12.055014 260.449188 2697513
48.280426 12.056122 260.482117 3092271
48.429043 12.057400 260.519501 2829099
48.581593 12.059474 260.577698 2894892
48.739067 12.062539 260.661865 2829099
49.490295 12.070323 260.885223 2565927
49.648022 12.073350 260.968384 2697513
49.796223 12.074455 261.001251 2500134
49.941212 12.074912 261.017181 2500134
50.079391 12.074013 260.997559 2434341
50.493732 12.071301 260.938416 2631720
50.652245 12.074414 261.023834 2763306
51.122810 12.082675 261.251892 2631720
51.281124 12.085680 261.334503 2434341
51.592648 12.090652 261.472534 2236962
51.867867 12.088587 261.426361 2434341
52.511494 12.102231 261.799347 2302755
52.643497 12.100114 261.747894 2368548
52.801540 12.102931 261.825592 2236962
52.946648 12.103292 261.839020 2500134
53.109768 12.107038 261.941040 2500134
54.147308 12.113436 262.136230 2236962
54.325603 12.119864 262.308502 2434341
54.488918 12.123506 262.407837 2500134
55.555420 12.134628 262.726837 2171169
56.340073 12.146376 263.054352 2565927
56.498795 12.149006 263.127197 2500134
56.668365 12.153542 263.249969 2171169
57.295780 12.162535 263.501404 2171169
57.449642 12.164228 263.549774 2236962
57.735661 12.163815 263.546906 1710618
58.429981 12.184054 264.092987 1907997
58.588760 12.186507 264.161224 1907997
58.701065 12.180981 264.020447 1907997
60.175587 12.210180 264.821350 1776411
60.313072 12.208935 264.792725 2039583
61.265289 12.222566 265.173889 1644825
61.618435 12.239232 265.453552 1842204
-24.432608 17.614977 377.091034 16777215
-22.988447 18.133362 387.278870 16777215
-17.580111 17.351873 370.939240 16777215
0.688385 12.205304 261.048706 2039583
0.971233 12.194714 260.782867 1907997
1.678690 12.184596 260.540833 1842204
1.820690 12.186093 260.583405 2105376
2.245849 12.185747 260.586121 1842204
2.386122 12.179738 260.434723 1907997
2.669571 12.180122 260.452423 1973790
3.800229 12.172543 260.287567 2105376
3.939215 12.165985 260.121948 1907997
4.083001 12.171448 260.267029 2236962
4.645966 12.164062 260.091644 2171169
5.345706 12.149486 259.734222 2171169
5.488239 12.151649 259.794037 2302755
6.616332 12.147208 259.710205 2105376
6.758907 12.149022 259.760986 2236962
6.898574 12.146576 259.701599 2039583
8.442039 12.133070 259.394958 2171169
8.584291 12.134294 259.430450 2434341
8.865387 12.132792 259.399384 2236962
9.004875 12.130901 259.354340 2434341
9.133371 12.117128 259.002014 2171169
9.996889 12.134542 259.475555 2434341
10.125249 12.121887 259.152130 2368548
11.105300 12.115044 259.002197 2697513
11.516642 12.104932 258.752228 2894892
11.652375 12.100541 258.642517 2302755
11.802948 12.108736 258.858337 2171169
11.935601 12.101833 258.683655 2039583
13.063639 12.102625 258.735016 2171169
13.200424 12.099526 258.658722 2236962
13.484852 12.101510 258.717743 2631720
13.765682 12.100805 258.707245 2565927
13.911793 12.104527 258.807404 2631720
14.453973 12.089645 258.437775 2500134
15.996977 12.086152 258.389801 3158064
16.132971 12.083220 258.317749 3487029
16.283199 12.089017 258.471649 3355443
17.530924 12.077856 258.217499 5987163
17.671507 12.077796 258.219818 5000268
19.071596 12.074136 258.163605 6974058
19.208679 12.072275 258.119293 7039851
19.352530 12.073911 258.165497 5460819
20.469395 12.069662 258.086304 5066061
20.611732 12.070469 258.111053 6118749
20.747509 12.068124 258.054199 5855577
20.890423 12.069200 258.085907 6118749
22.141262 12.062331 257.942719 4342338
22.279364 12.061214 257.917664 4342338
22.420254 12.061343 257.924866 4605510
22.844870 12.062555 257.967804 4276545
23.126385 12.062660 257.978210 5066061
23.686041 12.061427 257.961700 4276545
24.235859 12.056197 257.841644 5723991
24.656681 12.055816 257.843323 4210752
24.935032 12.054687 257.821777 4013373
25.073668 12.053915 257.805634 5329233
25.220675 12.056442 257.874969 4671303
25.507282 12.058529 257.936737 6184542
26.328392 12.049909 257.736542 5592405
26.470812 12.050606 257.758423 5066061
